ply
format ascii 1.0
comment Created by Open3D
element vertex 1585
property double x
property double y
property double z
end_header
0.0145857 -0.076719 0.161962
-0.118089 0.0377892 -0.145486
-0.056026 0.0773141 0.122868
-0.105935 0.044983 -0.332033
-0.0990344 0.0228496 -0.0823619
0.0412106 -0.0425917 0.0586902
-0.117618 0.0749688 -0.341414
-0.0121541 -0.0280361 0.0322053
-0.0187143 -0.0192945 0.0328683
-0.0876867 0.0571338 -0.102824
-0.098017 0.118879 -0.325544
0.130321 -0.116265 0.151894
-0.0946939 0.0192222 0.027818
-0.0623663 0.0497753 -0.157981
0.0415654 -0.102658 0.2027
-0.118299 0.0711044 -0.342588
-0.102674 0.0214709 0.0317923
-0.0773738 0.00205823 0.0631997
-0.0933907 0.044533 -0.147609
-0.0895097 0.0806866 0.0678595
-0.118054 0.0236882 -0.0520682
-0.0876522 0.114598 0.177752
-0.0335535 -0.0566218 0.213789
-0.0453243 0.0320332 -0.101036
-0.117326 0.0542209 -0.172366
-0.077289 -0.00738209 0.102593
-0.0525436 -0.0175267 0.0581038
-0.0995064 0.0373518 -0.137111
-0.11758 0.0550308 -0.352627
-0.0888061 0.0807909 -0.276823
-0.103506 0.0235518 0.0222935
-0.00376611 0.0656759 -0.107382
-0.117824 0.0248335 -0.00773341
-0.117165 0.0239304 -0.0223538
0.00623741 -0.00422617 -0.00290961
-0.118259 0.0664987 -0.332909
0.0762362 -0.0688294 0.0930588
-0.10338 0.0746987 -0.267182
-0.109561 0.0655925 -0.272139
-0.117836 0.0574008 -0.181196
-0.063041 -0.00261222 0.0141296
-0.0570611 0.064831 -0.01658
-0.0439824 0.116569 0.172694
-0.018886 0.00555998 -0.0231576
-0.112548 0.0748532 -0.333059
-0.11806 0.0661448 -0.327169
-0.108789 0.0304316 -0.112211
-0.0589986 0.00278979 -0.0122311
-0.0870566 0.0891194 -0.110915
-0.0986264 0.0266129 -0.0929578
-0.118615 0.0294395 -0.104003
-0.0893254 0.0169899 -0.043288
-0.0986609 0.12578 0.352846
-0.1167 0.0933688 -0.367092
0.111055 -0.0764049 0.0655017
0.0327569 0.00668518 -0.0157935
-0.100342 0.0498165 -0.252634
-0.0925916 0.0956507 0.133266
0.0208687 -0.0292919 0.0426553
-0.084136 0.0518892 -0.272807
-0.108682 0.0387461 -0.137039
-0.061739 0.0904225 0.243666
-0.0941947 0.124508 -0.31733
-0.117775 0.091698 -0.339078
-0.0988298 0.0504674 -0.312818
-0.117051 0.0940579 -0.362393
-0.0494556 0.0186617 -0.0530892
-0.108994 0.0484936 -0.163978
0.0512477 -0.0426139 0.0544053
-0.0895292 0.0844838 -0.162625
-0.0222115 -0.0474153 0.108171
-0.0965212 0.106892 0.322864
-0.0390497 0.0855172 0.0577636
-0.092153 0.0836637 -0.162201
-0.0861007 0.0683058 -0.0324615
-0.117245 0.0706798 -0.337871
-0.058448 0.0260477 -0.0778997
-0.107677 0.0695901 -0.237184
-0.0619564 -0.00689119 0.0321021
-0.117005 0.0799544 -0.340912
-0.0636397 0.0997875 -0.00693422
-0.097857 0.130108 0.352406
-0.0934855 0.0955521 0.257637
-0.0744332 -0.00951113 0.112752
-0.117487 0.0660062 -0.322228
-0.0887421 0.0155596 -0.0073579
-0.10346 0.0800811 -0.337051
-0.0520109 -0.0324319 0.118498
-0.0863918 0.0932856 -0.0292394
-0.0983537 0.0948139 -0.372779
-0.0487735 0.110083 0.106339
-0.109425 0.0705169 -0.287295
-0.0719402 0.0919162 0.29903
-0.0329526 -0.0329524 0.0772155
-0.0364537 -0.0323124 0.0778812
0.0609801 -0.124807 0.262083
-0.117303 0.0560546 -0.34279
-0.115859 0.0542178 -0.360704
0.134021 -0.132443 0.21254
0.0730774 -0.0723547 0.0968935
-0.00609319 -0.0765679 0.243669
-0.0925214 0.0855976 0.129041
-0.117945 0.0245496 -0.0034695
-0.0922539 0.0917367 0.282516
-0.110365 0.0232975 -0.0325697
-0.0790592 0.101285 0.0025505
-0.116943 0.0883858 -0.383329
-0.117186 0.0575783 -0.292149
-0.0579053 -0.0431247 0.178634
-0.117059 0.0599443 -0.186598
-0.0972936 0.0175597 0.0217354
-0.0677429 0.055715 -0.187131
-0.0694089 0.105749 0.0280897
-0.0984905 0.0907842 -0.382153
-0.0976381 0.0749167 -0.187328
-0.0903727 0.0856196 0.0179564
-0.117728 0.0226654 -0.00166126
-0.0940763 0.100671 0.297464
-0.0902341 0.0858239 0.0334459
-0.109189 0.0650793 -0.19758
-0.113724 0.0602966 -0.187063
-0.028575 -0.0638581 0.21754
-0.0867733 0.123683 0.242992
-0.116594 0.0432558 -0.143553
-0.116923 0.0577296 -0.295278
-0.0753667 0.0916208 0.340314
-0.0838977 0.0874291 -0.156437
-0.0435138 0.101305 0.0828645
-0.116823 0.0570477 -0.307339
-0.0700076 0.00391254 0.0125273
0.0460809 -0.0327613 0.0428585
-0.0615922 0.0787963 0.248106
0.0059104 -0.0795465 0.172692
-0.105605 0.0457814 -0.326629
-0.0869649 0.0873646 0.306978
-0.0944682 0.116326 -0.327571
-0.117002 0.0528376 -0.362976
-0.0310247 0.0526397 -0.118818
-0.0684902 0.0736014 0.222742
-0.11413 0.0505892 -0.372766
-0.0133688 -0.0135473 0.0079736
-0.0966653 0.0628892 -0.167769
0.0710391 -0.0047008 -0.00252164
-0.0926731 0.0957708 0.117577
-0.0926728 0.105669 0.182643
-0.116512 0.0756076 -0.339437
-0.0286318 -0.0229127 0.0427383
-0.116773 0.0521636 -0.373702
-0.0394002 -0.0207752 0.0527075
-0.102414 0.073901 -0.236657
-0.0732915 -0.0248916 0.147465
-0.0635601 0.134134 0.22884
-0.0390162 -0.0165301 0.0413436
-0.116475 0.0618649 -0.191592
-0.0962805 0.0922776 -0.375773
-0.106252 0.0879986 -0.330138
-0.0838726 0.0695534 0.00361959
0.0106055 -0.0609876 0.122312
-0.0951453 0.0999334 0.347453
-0.0818017 0.113473 0.129227
-0.116417 0.0494697 -0.156347
0.032159 -0.0590919 0.0947935
-0.00427726 0.0318993 -0.0661775
-0.1099 0.0713493 -0.297137
-0.0772063 -0.024142 0.146891
-0.0841215 0.0156531 -0.0223083
-0.103894 0.050394 -0.321946
-0.0902965 0.0731641 -0.373495
-0.0789588 0.129304 0.247767
-0.0984872 0.0490312 -0.167456
-0.0878446 0.0110109 0.0820242
-0.0978895 0.0205731 0.042833
-0.051428 0.0660545 0.0115506
-0.116401 0.0983834 -0.342399
0.0206898 -0.100129 0.227808
-0.0880701 0.120336 0.233018
-0.109301 0.0220717 0.0082956
-0.0990527 0.0498837 -0.322254
-0.00905794 -0.0649189 0.152893
-0.107679 0.109388 -0.320164
-0.110364 0.0543407 -0.31701
-0.0751872 0.0939958 0.332938
-0.0873988 0.0891868 -0.0820085
-0.116441 0.0547806 -0.165735
-0.0740617 0.114547 0.108125
0.0364016 -0.0781078 0.142481
0.00475147 0.0627065 -0.0953481
-0.00787179 -0.0778525 0.237957
-0.0936177 0.0608283 -0.392372
-0.113839 0.0235363 -0.0671176
-0.0880361 0.0607956 -0.101967
-0.0459007 0.00840164 -0.0228439
-0.116388 0.0251963 0.0010174
-0.101565 0.0697083 -0.351119
-0.10557 0.0776096 -0.32196
-0.0734414 -0.0183449 0.128044
-0.0979108 0.139266 -0.321966
-0.0898284 0.121051 0.27241
-0.0938628 0.0761441 -0.363172
-0.116376 0.069106 -0.321143
-0.0602248 0.086863 0.271548
-0.0906941 0.0758506 -0.0470571
-0.0940322 0.105419 0.247376
0.101188 -0.119188 0.192236
0.0116163 -0.0735015 0.153504
-0.0492248 0.0956279 0.0428344
-0.0286777 -0.0285995 0.0546369
-0.104927 0.077513 -0.317589
-0.11632 0.0685855 -0.318567
-0.079897 0.12243 0.195883
-0.0841072 0.0914864 0.357519
-0.113813 0.0240797 -0.0263304
-0.0973846 0.093766 -0.375194
-0.106627 0.0622982 -0.23468
-0.110738 0.0730881 -0.320223
-0.114441 0.0608716 -0.32754
-0.115845 0.0655869 -0.337085
0.0574693 -0.118136 0.229712
-0.0878466 0.0470594 -0.196342
0.130945 -0.120408 0.168075
-0.114538 0.02698 -0.106894
-0.114076 0.0364908 -0.132629
-0.0790396 0.10476 0.0377233
-0.0886485 0.050789 -0.291724
-0.0913749 0.0834084 -0.0187987
-0.0700897 0.0384032 -0.147179
0.0512722 -0.0479885 0.0675962
-0.115558 0.0544863 -0.357546
-0.115139 0.0547496 -0.173151
-0.0383164 0.0559445 -0.127862
-0.0487056 0.0138935 -0.0393492
-0.113651 0.0389965 -0.137781
-0.0949811 0.019015 0.0234625
-0.108774 0.0513611 -0.172333
-0.0457573 -0.0266475 0.0907038
-0.0233196 -0.038376 0.0782356
-0.114549 0.0374211 -0.136233
-0.114756 0.0971841 -0.352487
-0.11419 0.0235501 -0.0422082
-0.0969459 0.0181412 -0.0400272
-0.113807 0.0237666 -0.032662
-0.0746583 0.0671486 0.0624122
-0.0439587 -0.0177406 0.0378241
-0.102395 0.078724 -0.307155
-0.113811 0.0865654 -0.387957
-0.0393697 0.0763762 -0.151943
-0.104057 0.0506003 -0.30279
-0.0900307 0.08967 0.262489
-0.113819 0.0246132 -0.0923554
-0.0914767 0.092008 0.0516166
0.0613817 -0.0141015 0.0132602
-0.107137 0.065645 -0.212753
-0.0908852 0.0828241 -0.161754
0.0829725 -0.022527 0.0095689
-0.113791 0.0267172 -0.102372
-0.109909 0.0840265 -0.346185
-0.0942507 0.0957335 0.172618
-0.0565555 0.0947644 0.138682
-0.0413866 -0.0468579 0.14445
0.116058 -0.109677 0.158275
0.00560065 -0.080769 0.177802
-0.113957 0.0906519 -0.336853
-0.033128 -0.0281955 0.0581843
-0.109151 0.0522367 -0.180964
-0.0915326 0.0829352 0.169635
0.0720896 -0.131991 0.26257
-0.113686 0.0350988 -0.127914
-0.0939744 0.0798247 -0.307292
-0.0876194 0.0428879 -0.155839
-0.0568396 0.0864752 -0.0364652
-0.0510225 0.0886356 0.167922
0.0518714 -0.0624144 0.0945411
-0.0904843 0.0856796 0.0728167
0.000523676 0.041016 -0.0727404
-0.113762 0.0446113 -0.152597
-0.106957 0.0525133 -0.297569
-0.0575317 0.131674 0.196945
-0.116127 0.0327304 -0.130356
-0.07036 -0.0108666 0.102603
-0.101274 0.0528849 -0.238075
-0.0888045 0.0658555 -0.0925059
-0.114738 0.0477214 -0.160111
0.113986 -0.0915491 0.0970663
0.0820785 -0.128127 0.243344
-0.114417 0.0760747 -0.33754
-0.033138 0.0274989 -0.0766673
-0.11387 0.0855823 -0.337881
-0.113743 0.022774 -0.0618411
-0.0284974 0.0142566 -0.0432777
-0.0944687 0.116197 0.297412
-0.114728 0.0961353 -0.336595
-0.049548 0.0616647 0.0126266
-0.048942 0.0413305 -0.12229
-0.083764 0.101037 0.0277262
-0.114172 0.0555132 -0.177179
0.080405 -0.045843 0.0469773
-0.0874912 0.0775848 0.132517
-0.114628 0.0494728 -0.161855
-0.0838787 0.0858584 0.302961
-0.115117 0.0485519 -0.39744
-0.0799473 0.0693715 0.0577118
0.0776632 -0.0821136 0.114766
-0.113273 0.0622679 -0.192059
-0.101933 0.0662627 -0.192837
-0.0437064 -0.0540974 0.192803
0.0565883 -0.0181173 0.0188627
0.0297937 0.0119475 -0.0211544
-0.00330316 -0.00428011 -0.00253969
-0.0898896 0.0850524 0.187675
-0.105624 0.090427 -0.382658
-0.0784281 0.140428 0.303175
-0.114371 0.0876174 -0.383283
-0.0782663 0.0867914 -0.148362
-0.107617 0.0516648 -0.307565
-0.11378 0.0323651 -0.12127
-0.0326851 -0.0625919 0.207367
0.0255213 -0.0856831 0.270717
-0.112969 0.0706591 -0.316723
-0.0918247 0.0812972 -0.0426088
-0.0795446 0.0706935 0.133358
-0.0998542 0.0541814 -0.221326
-0.072839 0.076155 -0.167285
-0.00365693 -0.0543266 0.108012
-0.0878362 0.0470185 -0.202121
-0.0344134 0.0370432 -0.0921427
-0.00386416 -0.0109988 0.0117375
-0.0538548 0.085673 0.127475
-0.114574 0.0490817 -0.392706
-0.0539989 0.0267895 -0.0866516
0.0614428 -0.0690016 0.107725
-0.0745587 0.0728931 0.187346
-0.0393174 -0.049844 0.162449
-0.113614 0.0248187 -0.0877133
-0.113604 0.0507042 -0.361937
-0.0971954 0.120343 0.327823
-0.0728099 -0.0294727 0.157715
-0.0988168 0.0471202 -0.382649
-0.0641975 -0.0303117 0.147515
-0.0952437 0.110505 0.385706
-0.0716857 0.0939073 -0.194169
-0.11386 0.079439 -0.336318
-0.114078 0.0242281 -0.0819611
-0.115503 0.0606868 -0.337159
-0.114091 0.0242187 -0.0222665
-0.0960017 0.0183886 0.00237601
-0.0221791 0.00853948 -0.0294895
-0.0897948 0.059458 -0.127591
-0.0513785 0.002845 -0.0151435
-0.0433856 0.0100977 -0.0474953
-0.0798758 0.0841957 -0.182404
-0.113244 0.0466772 -0.397895
-0.0782581 0.0370159 -0.12734
-0.112929 0.0912119 -0.334121
-0.0637591 0.104917 0.0328655
-0.0992059 0.120307 0.347546
-0.0652898 0.0466403 -0.172574
0.129362 -0.134787 0.251407
-0.115813 0.0593884 -0.34136
-0.102938 0.0704954 -0.212973
-0.114269 0.0223786 -0.0769596
-0.115838 0.0453347 -0.146467
0.0390588 -0.111387 0.238108
-0.116018 0.0380074 -0.145103
-0.0793084 0.0838167 0.307157
0.100814 -0.0751442 0.0776956
-0.114353 0.0548124 -0.341732
-0.0967533 0.0715835 -0.362023
-0.0587553 0.0958302 -0.00677654
-0.113956 0.0712193 -0.327296
-0.0386258 0.0160759 -0.0626482
-0.0905288 0.090964 -0.33461
-0.0238339 -0.0347498 0.072734
-0.113525 0.0552996 -0.327059
-0.11349 0.0336463 -0.123289
-0.0738705 0.0301487 -0.092664
-0.00860471 0.000592231 -0.0125378
-0.113253 0.0563795 -0.297408
-0.0910737 0.0771671 -0.369581
-0.0406063 0.103684 0.0988969
-0.0954818 0.0941288 -0.377696
-0.112526 0.0614167 -0.297651
-0.091633 0.0892992 0.0400759
-0.114427 0.0234681 -0.0472763
-0.0856011 0.0846254 0.261608
-0.0822624 0.076443 -0.262798
-0.0820684 0.0725479 0.123575
-0.113512 0.0510783 -0.357611
-0.0810689 0.0684923 0.0188904
-0.0998265 0.04706 -0.397154
-0.114244 0.0241391 -0.0174753
-0.07358 0.0212854 -0.0626185
-0.0882923 0.0511965 -0.311714
-0.0867546 0.0480983 -0.318318
-0.0609273 0.0749638 -0.185603
-0.115946 0.0536306 -0.364927
-0.00387746 0.0624377 -0.105898
-0.110212 0.0839285 -0.340487
-0.0901871 0.0704692 -0.0563802
-0.113423 0.0235437 -0.0765619
0.106708 -0.102483 0.138545
-0.113765 0.0234001 -0.0580882
-0.067249 0.0926145 -0.0729619
-0.103324 0.0802367 -0.322613
-0.0910952 0.0834658 0.1023
-0.103543 0.0600585 -0.197752
0.0663971 -0.117454 0.222395
-0.0135806 0.0239345 -0.0570798
-0.0900439 0.0610426 -0.411154
-0.0644972 -0.000761234 0.0223662
-0.0852165 0.0800099 -0.377066
-0.0706031 0.0628668 -0.142408
-0.0191856 -0.0506668 0.127211
-0.114106 0.0546873 -0.33665
-0.0755567 0.0082181 0.0351144
-0.0821784 0.11431 0.147031
0.0516065 -0.109238 0.273185
-0.0769488 0.0910142 0.332239
-0.11371 0.0297352 -0.112232
-0.092117 0.077119 -0.00750971
-0.0380142 0.0651588 -0.13807
0.0112525 0.0492699 -0.072335
-0.115859 0.0430808 -0.154992
-0.0445354 0.035204 -0.103025
-0.113737 0.0851509 -0.341584
-0.111833 0.0653848 -0.292241
-0.079058 0.0765445 0.252718
-0.0803419 0.0939123 -0.110091
-0.0525361 0.0652759 0.00367687
0.102988 -0.0773521 0.0739238
0.0550857 -0.0764446 0.13115
-0.0360637 -0.0211547 0.0505339
-0.113075 0.022261 -0.0218046
-0.0907764 0.0715165 -0.378639
-0.0940809 0.0910039 0.147232
0.0306232 -0.105249 0.242866
-0.114108 0.081253 -0.342375
-0.0362981 0.0484618 -0.112091
-0.0949478 0.100263 0.332639
-0.04258 0.0438953 -0.112856
0.121195 -0.109393 0.14278
-0.11417 0.0596802 -0.183092
-0.0682671 0.0711924 -0.121935
-0.0510057 0.0989556 0.0442087
-0.112793 0.0935025 -0.365433
-0.0800074 0.122511 0.191811
-0.0940096 0.120771 -0.327481
0.0204849 0.051286 -0.0681514
-0.0902157 0.080208 0.123174
-0.0639464 -0.0235902 0.122808
-0.104662 0.0236175 -0.0594131
-0.114423 0.0387732 -0.13398
-0.0992241 0.0285044 -0.0977335
-0.113066 0.0657921 -0.277129
-0.0730243 0.0917761 -0.0996154
-0.0804208 0.0784964 0.252103
-0.113743 0.0997763 -0.336924
-0.089556 0.0760048 -0.392697
-0.0721747 0.0731053 0.212899
-0.0966304 0.123748 0.32849
-0.0790822 0.0693174 0.0625162
-0.113401 0.0220437 -0.031393
-0.113615 0.0493868 -0.381791
-0.0102552 -0.0611354 0.146219
-0.0884111 0.0841969 -0.242409
-0.0840745 0.0998561 0.370747
-0.0873605 0.0728458 0.00597608
-0.1122 0.060972 -0.302668
-0.0075225 -0.0779364 0.242873
-0.00892226 -0.0597719 0.137861
-0.0847605 0.12203 0.227018
-0.099238 0.0703078 -0.351134
-0.113296 0.100512 -0.342042
-0.0986897 0.0197995 0.00761023
-0.105631 0.0599102 -0.23634
-0.113032 0.0708074 -0.32253
-0.0851697 0.0195822 -0.0318394
-0.0947808 0.100662 0.207721
-0.113743 0.0794331 -0.346209
0.036128 -0.0443693 0.0678446
-0.0877347 0.09245 0.366367
-0.0964669 0.097414 0.242088
-0.0707214 0.0701058 -0.206112
-0.0379757 0.0136552 -0.0441924
-0.0917836 0.0812761 -0.027163
-0.113703 0.0377101 -0.140408
-0.03882 -0.0489335 0.15282
-0.114509 0.0824979 -0.402001
-0.0829904 0.0881276 0.351943
0.065821 -0.0704703 0.107354
-0.113606 0.0572255 -0.286646
-0.113374 0.0458297 -0.401997
-0.103786 0.0564515 -0.237112
-0.115134 0.0929673 -0.362025
-0.0928281 0.0166406 0.0274643
-0.0238378 -0.04473 0.10792
-0.0880635 0.0552744 -0.33707
-0.0798901 0.0825973 -0.201581
-0.0935737 0.0808891 -0.202602
-0.106307 0.0934835 -0.370455
-0.0938767 0.0197099 -0.0370373
-0.0597193 0.0897163 0.232529
-0.0554349 0.0851098 -0.0326199
-0.113626 0.0562832 -0.303074
-0.0903625 0.0857196 0.0677122
-0.114787 0.0534273 -0.163543
-0.0564333 0.0921428 0.133994
-0.108921 0.0950276 -0.36311
-0.0484321 -0.012632 0.0278867
-0.0332155 0.000821666 -0.0223069
-0.0954235 0.0766561 -0.187167
-0.0759102 0.0657383 0.0228625
-0.0965615 0.0537166 -0.410604
-0.113516 0.0551509 -0.332135
-0.0338715 -0.03427 0.0875689
-0.114357 0.022358 -0.00741059
-0.055451 0.0771617 0.133364
-0.0899985 0.0905608 0.0478344
-0.0501871 0.0522386 -0.14089
0.0364738 -0.0318586 0.0401032
-0.113496 0.0289591 -0.102881
-0.0855288 0.0853222 0.276999
-0.113588 0.0241063 -0.0124616
-0.108669 0.0462602 -0.347619
-0.0923885 0.0863717 0.217055
-0.114727 0.0284177 -0.098767
-0.0964454 0.0731928 -0.147538
-0.0792495 0.0824129 -0.191664
0.0972792 -0.0679992 0.0584478
-0.0935694 0.0805923 -0.192357
0.00613868 -0.0146989 0.0176257
-0.0504428 0.0604835 0.00756385
-0.11306 0.056731 -0.181653
-0.113706 0.058704 -0.277444
-0.101028 0.0667116 -0.193053
-0.0709279 0.0595672 -0.0617017
-0.114806 0.0653749 -0.327192
0.107896 -0.0927008 0.104208
-0.0556178 0.0725509 -0.0321011
-0.094868 0.0377493 -0.135204
-0.0564301 0.0818162 -0.0474939
-0.113506 0.0901732 -0.372761
-0.066147 0.0662208 -0.197837
-0.107437 0.0614909 -0.216831
-0.113199 0.0552511 -0.32197
-0.0929757 0.0805614 -0.142494
-0.094988 0.0186403 -0.0177431
-0.0751208 0.00412976 0.0438526
-0.0684489 0.119022 0.143581
-0.10804 0.0814608 -0.34803
-0.0829885 0.087291 0.332249
-0.113037 0.0239864 -0.00685452
0.106435 -0.103937 0.148126
-0.108461 0.0469513 -0.381796
-0.0334607 0.0556511 -0.122261
-0.11241 0.0706157 -0.312528
-0.0749761 0.0736015 0.20752
-0.0963869 0.0995202 0.278437
-0.0788117 0.0843571 0.312846
0.0383394 -0.0729189 0.124987
-0.0486914 0.032221 -0.0923475
-0.0838972 0.0514678 -0.287316
-0.0971814 0.105843 0.332526
-0.0615948 0.0840471 0.267005
-0.0652119 0.0612657 -0.1869
-0.0889964 0.080865 0.157998
-0.113349 0.0958656 -0.332347
-0.0500249 0.0616131 -0.152094
-0.0927437 0.134963 0.337529
-0.0303601 -0.0560558 0.167621
-0.0623372 -0.0375589 0.162705
0.106356 -0.0935038 0.117971
-0.100359 0.0473337 -0.267104
-0.050554 -0.00672342 0.0221742
-0.0857795 0.088522 0.298317
-0.0496047 0.128784 0.197826
-0.112622 0.0559862 -0.30776
-0.0881991 0.0810439 0.192673
-0.114746 0.0986171 -0.355259
0.00469267 0.0516023 -0.0817986
-0.0937988 0.101371 0.397807
-0.0580108 -0.0431974 0.182381
-0.107537 0.0223222 -0.00245866
-0.0442611 0.070788 0.0323618
0.0711977 -0.0835534 0.132658
-0.0466454 0.0398616 -0.114118
-0.110108 0.0976155 -0.353516
-0.0824682 0.00746928 0.0280598
-0.0636261 0.0317465 -0.126765
-0.0386041 -2.98266e-05 -0.00232906
-0.111923 0.0527354 -0.332463
0.0803187 -0.111088 0.187386
-0.113665 0.0565248 -0.283438
-0.0781593 0.00622871 0.0276992
-0.0788635 0.0672748 0.0711344
-0.0968584 0.0950953 0.326277
0.0111119 -0.0572779 0.0898283
-0.112764 0.046876 -0.387771
-0.112615 0.100203 -0.33313
-0.0924308 0.100586 0.410839
-0.105954 0.0890059 -0.33085
-0.103508 0.0526292 -0.18234
-0.0793267 -0.0110346 0.121753
-0.0575307 0.132848 0.201857
0.00466973 0.0311564 -0.0614378
-0.109775 0.045824 -0.357682
-0.0932656 0.0175026 -0.0323779
-0.113004 0.0327336 -0.125865
-0.103626 0.0338635 -0.117764
-0.0893392 0.0861532 -0.0923765
-0.0413292 0.0980393 0.0802831
-0.0968515 0.0742466 -0.157896
-0.111754 0.0427008 -0.387429
-0.0904345 0.0558695 -0.356599
0.121208 -0.121254 0.197161
-0.0240345 -0.03569 0.0767669
-0.113159 0.0223407 -0.00250101
0.088223 -0.143939 0.285826
-0.106701 0.0478617 -0.326039
-0.0790015 0.0955289 -0.0622162
-0.0724498 0.0927656 -0.0913309
-0.112987 0.0563537 -0.292986
0.0212661 -0.0189778 0.0226345
-0.0854942 0.0869805 0.337665
-0.112949 0.0238577 0.00891286
-0.109304 0.0447954 -0.366705
-0.112945 0.0230088 0.010962
-0.102243 0.0787155 -0.302104
-0.08476 0.0657012 -0.312188
-0.0364207 0.0936456 0.0976542
0.0662323 0.00889997 -0.0139668
-0.00842393 -0.0533627 0.113279
-0.1038 0.0469402 -0.371349
-0.0191308 -0.00951722 0.00735742
-0.0901966 0.101391 0.127347
-0.113779 0.0661344 -0.316413
-0.0942345 0.10539 0.217921
-0.111894 0.0692709 -0.307165
-0.0725674 -0.0180681 0.123342
-0.113241 0.0279615 -0.110761
-0.114244 0.0657191 -0.32248
-0.101967 0.052426 -0.243425
-0.0553176 0.0795037 0.0992445
0.0561907 0.014904 -0.017687
-0.108488 0.0805237 -0.336598
0.0550207 -0.12094 0.259039
0.0467323 -0.0629388 0.103773
-0.0918739 0.0853285 -0.238852
-0.113114 0.0603829 -0.316503
-0.11247 0.0464562 -0.377472
-0.101948 0.119294 -0.315825
-0.0769697 0.103413 0.0137077
-0.0989431 0.0203937 -0.0371218
-0.113679 0.0607619 -0.322238
-0.0286401 0.0295595 -0.0729384
-0.103163 0.0475498 -0.357435
-0.00885777 -0.0163688 0.0213936
-0.112888 0.0834278 -0.400455
-0.083867 0.0807711 -0.248639
-0.0957886 0.117093 -0.322108
-0.108525 0.0215946 -0.0427739
-0.06905 0.0417973 -0.168084
-0.0470082 0.0642613 -0.14881
-0.111306 0.0630919 -0.194997
-0.112552 0.0520371 -0.176376
-0.0798629 0.0713755 0.198809
-0.0622002 0.0654255 -0.0824905
-0.0940673 0.0906979 0.168362
-0.0734862 0.0806941 0.281318
-0.0915692 0.0676889 -0.0973671
-0.0732246 0.10519 0.0224162
-0.0432319 -0.0384431 0.123135
-0.113399 0.0655255 -0.312631
-0.0836025 0.0815705 0.277599
-0.0955563 0.0770751 -0.197385
-0.0886416 0.0465312 -0.166495
-0.0974155 0.0789802 -0.257673
-0.0878518 0.0814397 0.222455
-0.0850991 0.0741235 0.0974442
-0.113138 0.0644155 -0.187598
-0.1128 0.0607937 -0.312463
0.0362753 -0.0536592 0.0878021
-0.0812396 0.014638 0.00778575
-0.111616 0.103551 -0.3421
-0.0988782 0.0805045 -0.302214
0.00723654 0.0633658 -0.0919571
-0.0785294 0.0846876 0.318706
-0.0799493 0.0693707 0.0824731
-0.11249 0.0666777 -0.20142
-0.112711 0.0692026 -0.286508
0.0561723 -0.119969 0.242589
-0.112282 0.0739092 -0.327507
0.0966477 -0.0829306 0.0985462
0.061302 -0.127266 0.253183
-0.1121 0.0463238 -0.372617
-0.0519449 0.0917065 0.0184161
-0.09789 0.116029 -0.313476
-0.095562 0.105651 0.317574
-0.0434266 0.00273917 -0.0173555
-0.0826661 0.0123383 -0.00734271
0.0147673 -0.0120439 0.00699898
-0.0993023 0.0765144 -0.247887
-0.0460083 -0.0517865 0.195645
-0.0548594 -0.00612397 0.027226
0.0394713 -0.105918 0.258336
-0.0953355 0.116704 -0.314874
-0.108808 0.045955 -0.407611
-0.0634991 0.0114126 -0.0321418
-0.0859473 0.137387 0.325961
-0.112022 0.0517801 -0.342594
0.0611473 -0.0899532 0.157728
0.051578 -0.0632109 0.0983431
-0.106684 0.061834 -0.238012
-0.113147 0.0431683 -0.407749
-0.0937932 0.0607656 -0.367232
-0.0832318 0.0715817 0.0426417
-0.0939432 0.10073 0.307366
-0.112758 0.0656775 -0.307461
-0.109209 0.0659151 -0.2674
-0.0536684 0.00654026 -0.0176272
-0.112516 0.042286 -0.393285
-0.0770096 0.0712469 -0.242534
-0.055539 0.0938802 -0.00205331
0.134875 -0.126481 0.202069
0.0821108 -0.0732858 0.0937761
-0.109249 0.0466595 -0.37248
0.0514506 -0.107768 0.212685
-0.102475 0.106071 -0.318544
-0.112045 0.0738331 -0.323422
-0.112965 0.103746 -0.325276
-0.0536484 0.0164768 -0.0514686
-0.0918066 0.0748533 -0.371252
-0.108195 0.0700059 -0.262241
-0.103736 0.110547 -0.322083
0.0483342 0.0342719 -0.0342239
-0.0981217 0.105186 0.407435
-0.0843047 0.116276 0.17753
-0.112228 0.0606291 -0.307474
-0.0322108 0.0188279 -0.0537592
-0.0991247 0.0798514 -0.326784
-0.111835 0.022335 0.00259018
-0.0964067 0.100289 0.295789
0.00342934 -0.0870335 0.193802
-0.0887022 0.0786379 -0.305745
0.0119024 0.0548745 -0.0771977
-0.0755123 0.0676319 0.102547
-0.0083783 -0.0106548 0.0112808
-0.0931517 0.0756167 -0.10666
-0.111912 0.0655537 -0.262785
-0.0971259 0.0673125 -0.14772
-0.0684231 -0.0037396 0.0527442
-0.0567333 0.0927038 0.163008
-0.111164 0.0585319 -0.306293
-0.097757 0.0176713 0.0166429
-0.112331 0.0423739 -0.396112
-0.112245 0.0644058 -0.266567
-0.0790081 0.115268 0.138278
-0.070284 -0.00177239 0.0617662
-0.0389116 0.106732 0.13721
0.0131808 -0.0970269 0.214208
-0.107687 0.0696477 -0.252282
-0.112414 0.0228633 0.0180014
-0.111749 0.0693708 -0.302623
-0.0916282 0.134366 0.33344
-0.0880954 0.0580888 -0.159007
-0.111855 0.0474592 -0.367428
-0.0889371 0.0758406 0.017925
-0.103987 0.0493184 -0.352996
-0.0894404 0.0473154 -0.236534
-0.0437573 0.0160397 -0.0528263
0.106248 -0.123478 0.203262
-0.0941096 0.0321297 -0.116736
-0.0923225 0.104599 0.158075
-0.111891 0.0658264 -0.297298
-0.0934114 0.0955794 0.272562
-0.0631371 -0.00391265 0.0278414
0.0512187 -0.0492313 0.0727103
-0.093533 0.0969103 0.367367
-0.0966203 0.102473 0.333587
-0.085117 0.020213 -0.0374229
-0.111596 0.068983 -0.298313
-0.111944 0.108263 -0.322363
-0.094633 0.130608 0.337745
-0.0738063 0.0374627 -0.151933
0.0919427 -0.0779277 0.0933188
-0.0934037 0.0656294 -0.381918
0.13538 -0.127896 0.203086
0.0543934 -0.0514559 0.0764028
-0.0907932 0.0738204 -0.325945
-0.111918 0.063069 -0.259051
-0.035992 0.092463 0.0956964
-0.111122 0.0237036 0.0206815
-0.058772 0.0267529 -0.102686
-0.0950339 0.105707 0.307408
-0.111631 0.0477693 -0.362333
-0.104971 0.0235464 0.0182082
0.0965392 -0.0987972 0.142636
-0.111693 0.0630073 -0.253679
-0.00400586 -0.0694526 0.158203
-0.094426 0.105604 0.272795
0.107051 -0.0976912 0.128162
-0.111643 0.0431439 -0.379175
-0.111507 0.0620638 -0.290826
-0.09579 0.0775465 -0.217726
-0.0329161 0.0147694 -0.0474442
-0.0907782 0.13235 0.322102
-0.075843 -0.00115291 0.0870385
-0.108702 0.0354426 -0.127544
-0.0887525 0.095743 0.0326852
-0.111143 0.066608 -0.291719
-0.0840418 0.0228494 -0.0706129
-0.0600469 -0.00157479 0.015972
-0.0760679 0.0570965 -0.236371
-0.0630779 0.120902 0.15186
-0.0873212 0.0898894 -0.1021
-0.111 0.0656297 -0.287108
-0.0904823 0.121847 0.282715
-0.109603 0.0598061 -0.193042
-0.0387519 0.0805879 0.0528796
-0.0532546 0.0778212 0.141921
-0.109216 0.070663 -0.282468
-0.108714 0.0660009 -0.232182
-0.100295 0.111871 -0.322724
-0.0836529 0.0900959 -0.117629
-0.10944 0.0238268 -0.00212064
-0.0900922 0.0960153 0.0922201
-0.0539126 0.109417 0.0871663
-0.0622236 0.0862217 -0.072282
-0.109108 0.0399202 -0.14245
-0.0834815 0.0997337 0.00787615
-0.0931578 0.0950267 0.263304
-0.109605 0.101216 -0.332186
-0.0764773 0.00786534 -0.00859451
-0.00696229 -0.0769158 0.17923
-0.085354 0.05708 -0.336956
-0.0685693 0.074967 0.238367
-0.110332 0.104078 -0.345305
-0.0900492 0.0909119 0.0428405
-0.0973553 0.0778095 -0.326379
-0.0919746 0.0800917 -0.0925656
-0.0696127 0.117978 0.142953
-0.109883 0.101677 -0.337141
-0.0971705 0.0497335 -0.387356
-0.0542971 0.0858441 0.117866
-0.0460628 0.118304 0.153784
-0.0956831 0.121317 0.316969
-0.0903453 0.111269 0.197384
-0.108934 0.0372576 -0.136765
-0.108082 0.0558077 -0.282783
-0.108875 0.0493127 -0.372333
0.111299 -0.126033 0.212132
-0.0656798 0.0892927 -0.0866662
0.0319554 -0.0731205 0.133357
-0.0875549 0.0908545 -0.0223546
0.0367161 -0.108567 0.252669
-0.109052 0.0552395 -0.296947
0.00554804 -0.0165222 0.0211941
-0.108843 0.022241 -0.0518027
-0.0912989 0.0730652 -0.0555098
-0.109209 0.0493609 -0.352291
-0.0384152 -0.0338055 0.09801
-0.110433 0.0718853 -0.307396
-0.0636129 0.0125777 -0.0413467
-0.0923166 0.0870587 0.0666657
-0.109352 0.0875186 -0.3877
-0.108612 0.0226268 -0.0676117
-0.00353268 -0.0730311 0.163641
-0.092478 0.0958218 0.128368
-0.0923572 0.0553144 -0.361854
-0.00401414 -0.080028 0.192647
-0.108777 0.0265428 -0.101597
-0.108645 0.0659992 -0.257808
-0.0842456 0.0216566 -0.0618104
-0.092575 0.0952743 0.112863
-0.0497639 0.0766042 0.181996
-0.0587298 2.06271e-05 0.0071515
0.103663 -0.0924998 0.11046
-0.0992707 0.0706122 -0.172031
-0.0423105 0.0859126 0.0474112
0.0161479 -0.0901911 0.187732
-0.0892371 0.0155707 0.0527258
-0.0599078 0.0804725 0.242677
-0.0792705 0.0747153 0.212992
-0.109397 0.0548836 -0.302898
-0.0755037 0.00460305 0.0882818
-0.109187 0.0488558 -0.362745
-0.0403776 -0.0214264 0.0563539
0.0776847 -0.112157 0.290654
-0.100989 0.1153 0.366086
-0.0578845 0.0862312 0.222327
-0.0890636 0.0227 -0.0712764
-0.108431 0.0755164 -0.321801
-0.0786494 0.0220107 -0.0712157
-0.0687307 0.0733724 0.217103
-0.0930765 0.0907352 0.217444
-0.0654587 0.0635917 -0.0519062
-0.0991193 0.10594 -0.331567
-0.0386958 -0.023794 0.0576068
-0.108797 0.026507 -0.0974307
0.0920586 -0.122301 0.199345
-0.108815 0.0235417 -0.0677524
-0.110638 0.0605671 -0.292184
-0.0629318 0.0909557 -0.057363
-0.109984 0.0546326 -0.312378
-0.0874682 0.023409 -0.0689484
-0.0787754 0.0239385 -0.067762
-0.0541188 0.0907657 0.15286
-0.0881428 0.0959751 0.0427244
-0.109065 0.0656919 -0.262405
-0.08834 0.0717184 -0.0173908
0.0465636 -0.0431061 0.0581937
-0.105033 0.0942586 -0.369332
-0.0791201 0.087098 0.341712
-0.108662 0.0468982 -0.392248
0.0721042 -0.117735 0.222869
-0.108632 0.0656496 -0.247547
-0.110343 0.04875 -0.394094
-0.0843187 0.0242424 -0.06722
-0.0849927 0.106858 0.112841
-0.0714305 0.0625621 -0.149079
-0.0641575 0.139756 0.272762
0.0683481 0.00301134 -0.00994388
-0.0907509 0.0941682 0.312743
-0.108504 0.065786 -0.252232
-0.109809 0.0238513 -0.00618218
-0.108529 0.0512028 -0.327075
-0.0633441 0.0960644 -0.0370887
-0.0635627 0.101793 0.00753975
-0.0668919 0.0588244 -0.0424061
-0.0833844 0.115446 0.167856
-0.108878 0.0493455 -0.357566
-0.0827722 0.0813669 0.282995
-0.109119 0.0888901 -0.385658
-0.0885013 0.0710264 -0.0225331
-0.0969496 0.120346 0.318124
-0.108617 0.0470536 -0.376963
0.0755238 -0.115998 0.212372
-0.109103 0.0965727 -0.35727
0.0218226 -0.0465519 0.0759247
-0.0552937 0.128638 0.187895
0.101649 -0.12776 0.212886
-0.103803 0.0212261 -0.0370638
-0.103677 0.109654 -0.331573
0.0614131 -0.112634 0.214101
0.0559115 -0.100849 0.192428
-0.085215 0.0740068 0.0778477
-0.108684 0.0704831 -0.271969
-0.0865997 0.123198 0.233447
-0.105243 0.0771056 -0.311813
-0.0897123 0.0851292 -0.148112
0.0872275 -0.0533707 0.0483368
-0.0986082 0.105607 0.347799
-0.0839477 0.0699119 0.0127719
-0.0874051 0.0121649 0.0477899
0.0212822 -0.0130836 0.0130719
-0.110772 0.102205 -0.341858
0.0561129 -0.0993403 0.187422
-0.109347 0.0802535 -0.341553
-0.0984698 0.0420963 -0.1511
-0.045349 0.099032 0.0677183
-0.107985 0.0554085 -0.286976
-0.0910246 0.107783 0.186857
-0.077917 0.086978 -0.141969
-0.111069 0.0534986 -0.329922
-0.096887 0.116337 0.312817
-0.088774 0.0845012 -0.172076
-0.109738 0.0643988 -0.193177
-0.10157 0.0883341 -0.395883
0.05911 -0.0815218 0.140405
-0.0892988 0.0854996 -0.067002
-0.110721 0.0535044 -0.326257
-0.0923955 0.0858106 0.172941
-0.0769147 0.08242 -0.167643
-0.0934013 0.0803887 -0.167351
-0.10215 0.0833522 -0.343437
-0.0947862 0.0375105 -0.131075
-0.108115 0.06558 -0.206737
-0.107427 0.0607167 -0.252089
-0.0904293 0.0806538 0.0127595
-0.109689 0.0710309 -0.292333
-0.0837018 0.136793 0.312339
-0.0238281 -0.0235037 0.0471495
-0.0870384 0.124258 0.252727
0.106237 -0.134681 0.257363
-0.0348814 0.0424449 -0.106634
-0.108715 0.0413243 -0.146554
-0.0917848 0.0652369 -0.401763
-0.0407898 0.0799667 0.0441393
-0.0784981 0.136897 0.293089
0.0370725 -0.042746 0.059844
-0.109315 0.07648 -0.331535
-0.108697 0.045922 -0.157456
0.135481 -0.120656 0.173596
0.0611571 -0.0308997 0.0363126
-0.109115 0.0503594 -0.347483
-0.0686093 0.0962708 -0.0577095
-0.0910149 0.0450124 -0.138395
0.129179 -0.126703 0.211242
-0.103806 0.0291405 -0.102084
0.0865637 -0.0873777 0.119313
-0.0940053 0.0751914 -0.332911
-0.110159 0.0718033 -0.302355
-0.102701 0.0468012 -0.292034
-0.108531 0.0248239 -0.0876102
-0.0523074 0.0772312 0.162874
0.00122772 0.0214892 -0.0475191
-0.0703186 0.141038 0.287466
-0.106322 0.0686342 -0.214683
-0.0839157 0.0912667 -0.0926647
0.115856 -0.104765 0.137604
-0.00991934 -0.0412463 0.0770073
-0.085943 0.0586738 -0.10157
0.0859826 -0.13081 0.257517
-0.0889561 0.101166 0.0975708
-0.0384465 0.0123119 -0.0418351
-0.10864 0.0342613 -0.12241
0.0765665 -0.0985868 0.158034
-0.0842249 0.009771 0.077769
-0.0986359 0.120826 0.342329
-0.0923573 0.110424 0.241986
0.0171314 -0.0731291 0.148238
-0.0836409 0.125387 0.242719
-0.109754 0.0550349 -0.307442
-0.106476 0.0529702 -0.288694
-0.0851512 0.0948611 0.366867
-0.0905217 0.0488483 -0.217491
-0.103757 0.0266299 -0.101898
-0.0154199 -0.0710143 0.196817
-0.108807 0.0223229 -0.046982
-0.0950229 0.0805928 -0.321847
0.110478 -0.100909 0.137158
-0.0337302 0.0602782 -0.127416
0.0213629 -0.034334 0.0524897
-0.104085 0.0508294 -0.292426
-0.102613 0.0741823 -0.246636
0.0963385 -0.133659 0.262922
0.0315462 -0.0933223 0.273012
-0.105526 0.0726551 -0.267707
0.0245859 0.022484 -0.0353056
-0.108639 0.0552924 -0.292121
-0.0967996 0.0975395 0.232551
0.0205223 -0.0167281 0.0204325
-0.0392559 -0.00124628 0.00184688
-0.108669 0.0440161 -0.152189
-0.0870853 0.0992089 0.037653
-0.0788713 0.0853111 0.322334
-0.101797 0.0734972 -0.223032
-0.0897565 0.104084 0.397389
0.0775449 -0.127694 0.242689
-0.0638643 0.0105076 -0.0275692
-0.108488 0.0837213 -0.403227
-0.0505408 0.0867872 -0.170953
-0.108743 0.046505 -0.411369
-0.0730808 0.00268009 0.0220756
-0.0947714 0.105674 0.302476
-0.108955 0.0650414 -0.20167
-0.0857716 0.0971036 0.0230841
-0.11091 0.0942192 -0.364833
0.00945537 -0.0515317 0.0859941
-0.0819519 0.108827 0.09159
-0.0795605 0.0827949 -0.197473
-0.103714 0.0214465 -0.0473169
-0.0935927 0.0804154 -0.197245
-0.0804964 0.0739019 0.167826
0.0908761 -0.124888 0.289057
-0.0882512 0.055175 -0.342423
-0.0888063 0.014735 0.00737608
-0.0913276 0.0840193 -0.0753976
-0.106449 0.0574793 -0.259167
0.0759105 -0.114884 0.2884
-0.109697 0.0419404 -0.402779
-0.0760084 0.0828176 0.30543
-0.0585116 0.031073 -0.122177
-0.0954623 0.0512246 -0.386801
-0.0636692 0.0292417 -0.0872633
-0.094458 0.100581 0.322746
-0.109433 0.104704 -0.342314
-0.0564569 0.127147 0.178479
-0.10883 0.0747174 -0.317694
0.0907027 -0.0556102 0.0522051
-0.108293 0.0701135 -0.257297
-0.108829 0.0336777 -0.118025
-0.0957202 0.110236 -0.341475
-0.0906579 0.105781 0.403366
0.050615 0.026994 -0.0312202
-0.0935415 0.0463098 -0.16198
-0.0772415 0.0938889 0.328267
-0.0907439 0.0578536 -0.375438
-0.109137 0.0955802 -0.33225
-0.10823 0.0224028 -0.0179787
0.076264 -0.114169 0.203288
-0.103836 0.0490747 -0.336225
-0.0356353 0.0896368 0.0774649
-0.108936 0.0239339 0.00158922
-0.0833122 0.0903358 -0.132313
0.0619105 -0.0433603 0.0535044
-0.109076 0.0501501 -0.342172
-0.0575794 0.0900281 -0.178469
-0.108471 0.0516832 -0.321989
-0.0528506 0.0896452 0.172596
-0.110551 0.0656148 -0.282679
-0.108623 0.0910528 -0.377935
-0.0538414 0.0216522 -0.0670508
0.0654096 -0.0609458 0.0865921
-0.0561006 0.0526947 -0.152685
-0.109025 0.048897 -0.367796
0.0220922 0.0240359 -0.0385054
-0.0864119 0.0939123 -0.0203201
-0.102264 0.069764 -0.207425
-0.094769 0.100817 0.233144
0.0660317 -0.000887834 -0.00379337
-0.108516 0.0656687 -0.242038
-0.093722 0.082539 -0.277486
-0.0898931 0.0490521 -0.191531
-0.109397 0.0536895 -0.17854
-0.0972757 0.110019 0.310225
-0.0954549 0.0772074 -0.202573
-0.103773 0.021399 -0.0267241
-0.0937721 0.0195581 -0.0325567
-0.0833343 0.0944519 -0.036678
-0.0938686 0.105311 0.407087
-0.0957288 0.110649 0.312388
-0.0649962 0.0855368 -0.106658
-0.0486947 0.110981 0.111434
-0.0426141 0.0495694 -0.123026
0.0284421 0.0336417 -0.0441563
0.00127785 -0.0503031 0.093099
-0.107687 0.055933 -0.277908
-0.107959 0.050983 -0.317399
-0.075713 0.0650952 0.0153241
-0.0938252 0.105564 0.207213
0.0375665 0.0118909 -0.0205123
-0.108389 0.0224198 -0.0265206
0.0812647 -0.130546 0.278828
0.0387438 0.0268784 -0.0352521
-0.108611 0.104757 -0.337109
-0.103981 0.0244303 -0.0766387
-0.061835 0.0589047 -0.174281
-0.0967633 0.0521378 -0.202391
-0.0733319 0.0785886 0.264146
-0.0385679 0.0261126 -0.0722316
-0.0350948 0.0724715 -0.146435
-0.0904502 0.0860405 -0.00719896
-0.0735667 0.00101206 0.0525451
-0.0890958 0.0139055 0.0773554
-0.108936 0.0660466 -0.237202
-0.0545159 0.0807559 -0.0322221
-0.0982198 0.0979052 0.402588
-0.0853318 0.0792614 0.212599
-0.108718 0.0496915 -0.167599
-0.0980199 0.105533 0.342676
-0.090236 0.0802172 -0.392131
0.0669091 -0.0731495 0.108679
-0.109115 0.0917644 -0.37252
-0.0552823 0.108462 0.0779218
-0.0591724 -0.0412994 0.181621
-0.0747843 0.046487 -0.189004
-0.0890031 0.0829682 -0.247425
-0.110428 0.042713 -0.377262
-0.10899 0.0456685 -0.353033
-0.10889 0.0487868 -0.376114
-0.0868407 0.0940299 -0.0131775
-0.0898071 0.115355 0.221797
-0.0340862 -0.0547555 0.167752
-0.107871 0.0664342 -0.217511
-0.090203 0.0856604 0.0520875
-0.0767933 0.0517181 -0.226686
-0.108379 0.0485174 -0.386923
-0.0853292 0.118095 0.19629
-0.103641 0.10993 -0.326935
-0.103615 0.0211404 -0.0222342
-0.106559 0.0570635 -0.262932
-0.107861 0.0513961 -0.312591
-0.0636053 0.0273844 -0.0976309
0.0112729 -0.00910318 0.00338139
-0.085444 0.137287 0.316722
-0.110045 0.0656503 -0.277211
-0.0489415 -0.0349925 0.127849
0.106272 -0.08948 0.103275
-0.0583344 0.126322 0.172543
-0.10832 0.0748746 -0.307614
-0.0955981 0.0991599 0.357431
-0.0756585 0.098544 -0.0718815
-0.103612 0.114838 0.376097
-0.0468982 0.0760042 0.0227671
-0.110384 0.0829051 -0.405297
-0.0799791 0.092973 -0.091572
-0.0839198 0.0758898 0.162961
-0.10821 0.0606995 -0.196891
-0.0792392 0.0716102 0.212373
0.120111 -0.0980679 0.0985581
0.0829374 -0.0525709 0.0494097
-0.0881539 0.0811395 0.202991
0.0318701 -0.0827659 0.158175
-0.108161 0.0218661 -0.0123118
-0.108451 0.104523 -0.331742
-0.0628078 0.0390889 -0.133272
-0.0915383 0.0821138 0.117677
-0.095416 0.0765593 -0.177371
-0.109294 0.0606876 -0.277019
-0.0150738 -0.0712868 0.212584
-0.0412217 -0.0517306 0.181715
-0.107547 0.0697935 -0.242381
-0.0907941 0.0838606 -0.387912
-0.108782 0.0604503 -0.271916
-0.0698215 0.0856016 -0.117418
-0.091638 0.0699621 -0.406639
-0.0754367 0.075876 -0.217102
-0.0941399 0.100767 0.292428
-0.0902229 0.0942437 0.322794
-0.10862 0.066114 -0.221781
-0.0859554 0.0801997 0.207297
-0.100386 0.0786701 -0.342508
-0.109624 0.0431841 -0.149738
0.00118459 -0.00143836 -0.00829718
-0.0983167 0.110329 -0.33199
-0.0782538 0.0897715 0.337397
0.026235 -0.103983 0.237537
-0.107497 0.05728 -0.191885
-0.0732876 0.000929045 0.0385295
-0.085563 0.0495065 -0.182867
-0.0209095 -0.00270591 -0.0162118
-0.0925889 0.130015 0.317696
-0.0537795 0.0211358 -0.0792454
-0.0532557 0.0809299 0.137789
0.101442 -0.130894 0.28374
-0.107104 0.0740905 -0.292039
-0.0336631 0.0494058 -0.112723
-0.100297 0.0832278 -0.408888
-0.0693072 -0.00049102 0.0431211
-0.108262 0.0997916 -0.351057
-0.0916789 0.0803066 -0.0780811
0.0131976 -0.0619605 0.105918
-0.0933358 0.0809687 -0.157513
-0.107474 0.0971435 -0.328746
-0.042849 -0.0560036 0.206721
-0.0845054 0.101198 0.0472352
-0.0890086 0.0855129 -0.117029
-0.0184593 -0.0581147 0.143154
-0.108047 0.0606854 -0.262733
-0.0138928 -0.0597638 0.147136
-0.0846259 0.0513663 -0.297387
-0.108659 0.0630324 -0.225204
-0.0938674 0.0204455 -0.0477804
-0.062048 0.0904457 0.266955
-0.0353074 -0.0311658 0.0826466
-0.107472 0.105819 -0.323581
-0.0857293 0.0685582 -0.0230843
-0.102051 0.0553969 -0.226875
-0.0450346 0.0178924 -0.0725217
-0.0391252 -0.025514 0.067457
-0.107331 0.0220743 0.017545
-0.107731 0.085172 -0.332166
0.0707345 -0.104496 0.288623
-0.0991783 0.105681 0.357217
-0.0535495 0.0174109 -0.062703
-0.0873253 0.0577489 -0.14382
-0.00910439 -0.05761 0.123352
-0.0771871 0.103596 -0.00314972
0.0417038 -0.0881586 0.168619
-0.108562 0.0224015 0.0287495
-0.0985847 0.130616 -0.322702
0.0508236 0.03418 -0.0324337
-0.107537 0.0698664 -0.23233
0.129871 -0.109006 0.127688
0.0265807 0.000348711 -0.00749532
-0.0837955 0.0708602 0.0223877
-0.0201195 -0.0562062 0.146403
-0.0840843 0.0705328 0.0172841
-0.0992223 0.0659345 -0.17729
-0.0668145 -0.00235888 0.0231207
-0.107376 0.0695486 -0.227342
0.0249971 0.0272447 -0.0410956
-0.10764 0.0429805 -0.149951
-0.107375 0.0620296 -0.200996
-0.0871736 0.104813 0.102438
-0.107472 0.046082 -0.337323
-0.0979957 0.0871183 -0.392923
-0.0690781 -0.0148162 0.107878
-0.0520439 0.0973839 0.0373889
-0.107053 0.0465044 -0.331972
-0.107235 0.0696554 -0.222128
-0.046042 0.123668 0.182918
-0.0851504 0.0694738 -0.00785602
-0.106946 0.0216888 0.0327842
-0.0837586 0.039946 -0.132384
-0.093146 0.0807739 -0.152507
-0.107083 0.0617285 -0.247628
-0.107686 0.0627133 -0.214751
-0.0868249 0.0386563 -0.118584
0.105813 -0.122206 0.194048
-0.0842622 0.0740464 0.117498
-0.0460829 0.0725145 0.0232053
-0.106956 0.0616144 -0.241866
-0.0581124 0.133147 0.238946
-0.0945102 0.101214 0.407286
-0.0275249 -0.00795233 -0.00335669
-0.078898 0.0403149 -0.142706
-0.0937414 0.0416562 -0.1423
-0.0478922 -0.0231638 0.0733026
0.0610993 -0.11959 0.237433
-0.0925611 0.130271 0.322679
-0.0930113 0.0170472 -0.0220618
-0.106854 0.0737764 -0.287799
-0.0805979 0.0891594 -0.142124
-0.0765702 -0.00306332 0.0878598
-0.107256 0.0581547 -0.195854
0.0910948 -0.109179 0.17183
-0.0965465 0.0963945 0.188648
-0.106723 0.0526634 -0.293109
-0.106662 0.037712 -0.139797
-0.0988748 0.0498563 -0.327656
0.0913168 -0.0954637 0.142318
-0.0916741 0.114763 0.223471
-0.103843 0.0221368 -0.0721294
-0.102169 0.0889037 -0.392361
-0.0886788 0.0551866 -0.347007
-0.104365 0.0845269 -0.347349
-0.0685728 0.0303872 -0.0921716
-0.0437424 -0.0550529 0.20256
-0.106451 0.10879 -0.327124
-0.0972355 0.0789145 -0.246643
-0.0942457 0.0499149 -0.313276
-0.106394 0.047942 -0.322156
-0.0873166 0.0763971 0.0474445
-0.100016 0.0543257 -0.212027
-0.0977251 0.100856 0.362899
0.0517161 -0.117953 0.238823
-0.00392506 -0.0744666 0.17261
-0.10069 0.11046 0.367288
-0.0920777 0.0721403 -0.332538
-0.0602623 0.0945709 -0.0269423
-0.106301 0.0579784 -0.254683
-0.103672 0.0369847 -0.132143
-0.0936568 0.0226786 -0.0811403
0.0661279 -0.0891574 0.144105
-0.105334 0.0547455 -0.266971
-0.10439 0.0228218 -0.0681329
-0.0842884 0.0800656 0.242958
-0.090216 0.0664912 -0.392536
-0.0953759 0.076364 -0.162733
-0.105282 0.0720761 -0.246853
-0.0788114 0.126866 0.228471
-0.0944768 0.101359 0.271746
-0.10457 0.101027 -0.331166
-0.0853675 0.09728 0.0124175
-0.0726413 0.0654881 -0.211888
-0.103441 0.0212028 -0.0175305
-0.0828767 0.0122378 -0.0029774
-0.0433647 0.0447565 -0.117629
0.0681144 -0.0970097 0.159995
0.0412498 -0.0679533 0.113433
-0.0894164 0.0858257 -0.0875951
-0.0352838 0.0910091 0.0878
-0.105942 0.0656967 -0.217369
-0.0934556 0.0287073 -0.0976014
0.0059915 -0.0134202 0.012515
-0.103849 0.0551956 -0.188127
-0.0189692 -0.0303509 0.057921
-0.0905724 0.0649759 -0.106778
0.0412618 -0.104817 0.208127
-0.103526 0.0215316 -0.00198871
-0.0484853 -0.0288605 0.10263
-0.103654 0.0313003 -0.112436
-0.0460843 0.0626402 0.0224037
-0.103559 0.0322751 -0.122456
-0.0944569 0.105764 0.277226
-0.104085 0.0490819 -0.167715
-0.0970505 0.107749 0.3082
-0.103717 0.0259619 -0.0924266
-0.0917238 0.113773 0.212139
0.0445483 -0.0814533 0.151386
-0.104163 0.0467573 -0.387474
-0.0798302 0.116904 0.162291
0.0356261 -0.0763347 0.145461
-0.10515 0.105795 -0.327241
-0.0962934 0.105057 0.288238
-0.0952628 0.0762929 -0.172255
-0.0823679 0.0811185 0.292805
0.00664259 -0.0127164 0.00845274
-0.0734373 0.0952878 -0.0817796
-0.105158 0.0488602 -0.36428
-0.0897358 0.0588287 -0.157805
0.0771838 -0.0326928 0.0281123
-0.103061 0.0221723 0.0175301
-0.103668 0.0392599 -0.137424
-0.100281 0.0562722 -0.192157
-0.103774 0.0214489 -0.0325357
-0.103708 0.0464479 -0.401497
0.101035 -0.13811 0.286071
0.00470391 -0.0811958 0.181613
-0.089805 0.0486742 -0.186048
-0.104958 0.0462508 -0.317734
-0.0982664 0.0441044 -0.148272
-0.0603025 0.0810873 0.248386
-0.0941809 0.060785 -0.372608
-0.105941 0.0592108 -0.247336
-0.078033 0.0706432 -0.252077
-0.0894892 0.0930734 -0.344428
-0.104089 0.0717315 -0.222334
0.0675738 -0.117699 0.220124
0.0256131 -0.0816443 0.165922
-0.103495 0.101002 -0.323179
-0.059979 0.0756357 -0.182175
-0.0535759 0.116103 0.128529
-0.105082 0.0872744 -0.335542
-0.103753 0.0224709 -0.0618105
-0.105224 0.0723803 -0.256599
-0.0696578 0.0135334 -0.0338931
-0.0906327 0.0813934 -0.362962
-0.0738542 0.0138189 -0.0326163
-0.0830347 0.0909919 -0.112492
-0.103971 0.0872855 -0.391639
-0.0842356 0.0107034 0.0321994
-0.0968254 0.01802 -0.00307587
0.0846654 -0.121451 0.217286
-0.103024 0.0797833 -0.346658
-0.0867163 0.108655 0.131549
-0.0518883 0.127911 0.190568
0.100769 -0.133848 0.286651
-0.103929 0.0505567 -0.317388
-0.0978994 0.0200645 0.0570599
-0.0467412 0.120839 0.187699
-0.10375 0.0464182 -0.392013
-0.0247418 -0.0657307 0.217701
-0.0298273 -0.0610844 0.22136
-0.104575 0.0486266 -0.358411
-0.104954 0.0556625 -0.25682
0.0819391 -0.0832 0.118649
-0.0930908 0.0910845 0.226468
-0.103907 0.0960193 -0.327018
-0.104639 0.105374 -0.331673
-0.104217 0.105858 -0.322456
-0.0797188 0.0624552 -0.0586717
-0.0327035 -0.0625864 0.212988
-0.102483 0.0476703 -0.34825
-0.055072 0.0901645 -0.0118108
0.0226044 0.0224431 -0.0399856
-0.0900568 0.106289 0.157536
-0.0765834 0.0836207 -0.238152
-0.103647 0.0212238 -0.00659538
-0.0910215 0.112842 0.241909
-0.0538172 0.116905 0.133049
-0.0968783 0.101268 0.337514
-0.10363 0.0220631 -0.0572292
-0.104538 0.0501268 -0.307296
-0.0543616 0.123784 0.163784
-0.085064 0.0787681 -0.381128
-0.0574663 -0.0177341 0.0781961
-0.083493 0.0848889 -0.212402
-0.0880552 0.0907084 -0.366958
-0.0707276 0.0934243 -0.0914628
-0.104099 0.0709858 -0.216695
-0.0294517 -0.0606745 0.19289
-0.0590959 0.113701 0.103112
-0.0915767 0.0614326 -0.353343
-0.105267 0.0606861 -0.227622
-0.100097 0.060225 -0.192481
-0.0935329 0.080955 -0.397541
-0.104777 0.0769385 -0.302471
-0.106102 0.077689 -0.333228
-0.0787069 0.00982925 0.00240721
-0.0541468 0.0230106 -0.08828
0.0347777 0.0278986 -0.0351682
-0.083924 0.0446767 -0.166123
-0.10536 0.100834 -0.326308
0.106332 -0.132824 0.237796
-0.0873861 0.105934 -0.342097
-0.103474 0.075748 -0.277219
-0.0801376 0.00876014 0.0370292
-0.104332 0.0218747 0.0229865
0.053181 -0.0723195 0.114839
-0.103706 0.0661409 -0.202425
-0.104304 0.08762 -0.388012
-0.0480349 0.0854436 0.183418
-0.041064 0.114981 0.155792
-0.0937055 0.0190475 -0.0268026
-0.088955 0.0852196 0.238089
0.124856 -0.131601 0.236651
-0.104755 0.0962224 -0.361418
-0.103274 0.0467492 -0.382393
-0.102302 0.127271 -0.322662
-0.0774907 0.0672748 0.027566
0.105119 -0.0804434 0.0823697
-0.0939523 0.0500494 -0.227126
-0.106097 0.0730408 -0.27588
-0.0936603 0.0502276 -0.277053
-0.104168 0.0720498 -0.22741
-0.0883143 0.0899562 -0.356865
0.0110166 -0.039289 0.0625361
-0.0916631 0.0830342 0.148651
-0.0616033 0.0812047 -0.184209
-0.106076 0.0331577 -0.12572
-0.104197 0.105275 0.391948
-0.0650326 0.0800666 -0.106755
-0.091362 0.0828119 0.134972
-0.0656724 0.117926 0.136879
0.0961128 -0.0995941 0.147725
0.0902874 -0.0354191 0.0218267
-0.104954 0.023536 0.0126656
-0.10368 0.0472998 -0.362886
-0.078558 0.0629829 -0.0320629
-0.0376775 -0.0423847 0.122916
-0.0894645 0.0470196 -0.341434
0.0470271 -0.0828901 0.144861
-0.000821427 -0.0614299 0.135895
-0.104847 0.0550359 -0.262658
-0.0708805 0.0508522 -0.196216
-0.100371 0.120657 0.35752
-0.103774 0.0758682 -0.282397
-0.0424162 0.112466 0.131852
0.00075025 -0.0847392 0.21746
-0.105137 0.0601293 -0.231089
-0.0489367 0.0216341 -0.0821643
-0.0389376 -0.0294121 0.0827797
0.111383 -0.108201 0.158656
-0.106046 0.0532147 -0.179768
-0.0323804 0.0136776 -0.0437953
0.122818 -0.107098 0.119414
-0.062694 0.0811213 0.2635
-0.0937908 0.0274589 -0.102109
-0.0712347 0.0797977 -0.149416
-0.0853093 0.0700607 -0.307061
-0.0789715 0.126386 0.222613
-0.0149537 0.00671673 -0.0311753
-0.104098 0.0463286 -0.312372
-0.0811177 0.0604649 -0.0820182
-0.0688661 0.0609757 -0.192479
-0.106023 0.0978098 -0.355057
-0.0741867 0.0609889 -0.222549
-0.0939571 0.0501362 -0.322657
-0.068612 0.10138 -0.0118658
-0.105223 0.0720503 -0.24243
-0.00248923 -0.0724632 0.158363
-0.0860892 0.0137202 0.0618193
-0.0623351 0.102274 0.017763
-0.103639 0.0517573 -0.177067
-0.0440407 -0.0447563 0.152176
-0.103587 0.0440133 -0.152497
-0.0947348 0.111555 -0.336571
-0.0904 0.0806348 -0.0319065
0.0713108 -0.124843 0.247849
-0.00825538 -0.0782091 0.192258
-0.0639281 0.115806 0.11348
-0.106 0.0236089 0.00646363
-0.098492 0.0201788 0.0131705
-0.0540422 -0.00979776 0.0382884
-0.105997 0.0584358 -0.250759
-0.0784103 0.0656984 -0.266944
-0.103466 0.0284826 -0.0979667
-0.0420993 -0.0277839 0.0745321
-0.0901064 0.09052 0.0129665
-0.101632 0.111576 0.373882
-0.0890451 0.0514554 -0.317299
-0.103918 0.0416394 -0.147603
-0.0776604 -0.00819515 0.107657
0.0367313 0.0136643 -0.0189201
-0.0284593 0.0311846 -0.0773582
-0.10325 0.0216553 0.00158896
-0.0885762 0.110072 0.163026
-0.104407 0.049277 -0.347102
-0.0919163 0.0813803 0.0181034
-0.0435074 -0.0421502 0.129953
-0.0713236 0.0776883 -0.145952
0.0491946 0.0368975 -0.0351416
-0.0982846 0.0488999 -0.356541
-0.104165 0.0228265 -0.0823677
-0.0905115 0.0648181 -0.347457
-0.103581 0.0464498 -0.406714
-0.00822082 -0.0682683 0.158494
-0.0139027 -0.0543568 0.127518
-0.0881321 0.0865257 0.267215
-0.0353134 0.0906373 0.0825745
-0.104049 0.0471024 -0.36544
-0.0993961 0.0506584 -0.237884
-0.0918094 0.0940234 -0.350844
-0.0782813 0.115543 0.142308
-0.0779549 0.0418958 -0.170401
-0.0394959 0.10746 0.141155
0.0163326 -0.0935807 0.19771
-0.0306852 -0.0614805 0.207019
-0.104079 0.048585 -0.373222
-0.104281 0.0760513 -0.28712
-0.10386 0.0275313 -0.106754
-0.0376688 -0.00804602 0.0146095
-0.103534 0.057071 -0.196191
