ply
format ascii 1.0
comment Created by Open3D
element vertex 1663
property double x
property double y
property double z
end_header
-0.175628 0.0583344 -0.175482
0.264184 -0.203854 0.180245
-0.251141 0.112573 -0.971367
0.133376 -0.0991463 0.125853
-0.153778 0.207277 0.682795
-0.250951 0.0940544 -0.331493
-0.204044 0.158674 -0.754795
-0.145991 0.25181 0.078996
-0.22136 0.290588 0.670214
-0.142781 0.195437 -0.153698
-0.208085 0.223877 -0.235026
-0.242338 0.170251 -0.454833
0.0571502 -0.112728 0.170296
-0.250842 0.169455 -0.515865
-0.251079 0.12839 -0.66554
-0.251578 0.0531591 -0.0911884
-0.232414 0.248307 0.638373
-0.241508 0.119646 -0.599343
-0.201676 0.189074 0.565272
-0.171819 0.21025 -0.27884
-0.241141 0.0797374 -0.279371
-0.149271 0.16716 -0.182128
-0.251153 0.0953569 -0.349189
-0.236745 0.290431 0.759984
-0.251111 0.119794 -0.825717
-0.250891 0.070286 -0.245375
-0.227414 0.0432569 0.0397521
-0.152158 0.228894 -0.11039
-0.226295 0.225995 0.59434
0.0232858 -0.166795 0.335905
-0.250813 0.115241 -0.864129
-0.150025 0.175654 -0.197724
-0.162425 -0.0801403 0.380325
-0.211108 0.214748 0.780169
-0.251866 0.128072 -0.649821
-0.205734 0.0592255 -0.159742
-0.251472 0.25537 -0.780345
-0.167266 0.170423 -0.488495
-0.245 0.261192 -0.778616
-0.222675 0.230189 0.84549
-0.210798 0.205601 0.635606
0.0118829 0.123816 -0.199814
0.0135587 -0.196299 0.434601
-0.156354 -0.0309355 0.200742
-0.248222 0.109657 -0.738403
-0.230035 0.219352 0.61204
0.120924 -0.074198 0.0832358
-0.216554 0.189448 0.239372
-0.250473 0.194906 -0.844797
-0.211897 0.125994 -0.706182
-0.251095 0.0465513 -0.099166
-0.251026 0.114023 -0.928869
0.0686296 -0.221124 0.663241
-0.176795 0.18893 -0.391194
-0.226503 0.170904 -0.289128
-0.0123907 -0.142024 0.319019
0.192718 -0.189907 0.269319
-0.251488 0.182972 -0.6456
-0.221818 0.218829 0.227997
-0.212582 0.259616 0.34075
-0.25043 0.165538 -0.500556
-0.243703 0.270212 0.878436
-0.183982 0.0367008 -0.112041
-0.250048 0.284692 0.905628
-0.187674 0.199197 -0.450756
-0.252015 0.195778 -0.819613
-0.208624 0.222097 -0.0729581
-0.21212 0.15564 -0.231214
-0.0668895 0.0409273 -0.115899
-0.251788 0.160596 -0.504148
-0.210704 0.265795 0.329168
-0.252399 0.125969 -0.705542
-0.219615 0.205047 0.116931
-0.216186 0.202376 -0.446727
-0.221964 0.180636 -0.794372
-0.0218383 -0.184318 0.565027
-0.176737 0.138722 -0.129548
-0.220995 0.259477 0.419722
-0.243986 0.191987 -0.701205
-0.229656 0.120131 -0.850451
0.16007 -0.287867 0.561233
-0.158622 -0.0720972 0.363364
-0.22137 0.0392697 0.030355
0.0439133 -0.179309 0.368485
-0.25125 0.0626734 -0.210582
-0.251914 0.188575 -0.745468
-0.252358 0.255083 -0.805777
-0.0933849 0.0490793 -0.169586
-0.00695704 -0.136369 0.296318
-0.190253 0.172412 0.51151
-0.251368 0.125302 -0.676321
0.312111 -0.290384 0.404345
-0.252106 0.123992 -0.768022
-0.230331 0.255803 0.529099
0.0898418 -0.255163 0.505176
0.188835 -0.23026 0.356332
-0.199727 0.117949 -0.682656
-0.251097 0.112827 -0.955414
0.0479599 -0.154615 0.261295
0.268145 -0.325142 0.604475
-0.251257 0.11044 -0.754891
-0.250998 0.186231 -0.699615
-0.219309 0.199868 0.071452
-0.220634 0.210723 0.599688
-0.130666 0.311501 0.461613
-0.104981 -0.137758 0.490034
-0.0474393 -0.0768918 0.149408
-0.241761 0.0579843 -0.215675
-0.252271 0.222883 -0.798852
-0.156415 -0.0298289 0.209832
-0.250983 0.0636698 -0.220951
-0.222164 0.214902 0.155616
-0.157815 0.190716 -0.470595
-0.231896 0.0489603 0.0898017
-0.125307 0.194566 0.40931
-0.251354 0.123658 -0.77871
0.178409 -0.224415 0.369189
0.0630207 -0.239592 0.491259
-0.156869 0.0834323 -0.26466
-0.250964 0.0513226 -0.121317
-0.00104725 -0.153124 0.31938
0.148955 -0.0446612 0.04399
-0.218085 0.178805 -0.0464064
-0.220819 0.0432178 0.109943
-0.251179 0.178741 -0.571072
-0.252177 0.119232 -0.884479
0.072128 -0.22201 0.448182
0.0137875 -0.125207 0.224928
-0.207602 0.233324 0.0187451
-0.2509 0.125836 -0.670487
-0.120408 -0.0886129 0.334967
0.0378287 0.0464526 -0.0890539
0.138663 -0.165005 0.260598
-0.158623 0.181153 -0.263314
-0.246883 0.124867 -0.739881
0.210266 -0.30386 0.551244
-0.251096 0.123503 -0.735685
0.0342817 -0.120196 0.190666
-0.219024 0.224156 0.853267
-0.251919 0.134964 -0.584011
0.0675091 -0.251362 0.578201
-0.22734 0.235477 0.872866
-0.0219947 -0.181253 0.429623
-0.241704 0.114034 -0.901395
-0.0828219 0.183079 -0.363187
-0.177739 0.155484 -0.535066
-0.252139 0.0526547 -0.03424
-0.1849 0.139454 -0.564551
-0.071459 0.118829 -0.257283
-0.241197 0.214511 -0.9565
-0.133226 0.332355 0.587934
-0.240348 0.110534 -0.982757
-0.250616 0.0519856 -0.0605935
-0.250876 0.209005 -0.963146
-0.221714 0.258444 -0.814926
-0.169791 -0.0133663 0.169141
-0.235127 0.19279 -0.635782
0.0974142 -0.256017 0.501227
-0.142389 0.00099995 -0.00902563
-0.250818 0.0526617 -0.0958856
-0.201273 0.299796 0.53085
-0.231065 0.254676 0.556186
-0.0669418 -0.0646689 0.135502
-0.209129 0.175535 0.04313
-0.0907902 0.107299 -0.253711
-0.252027 0.193792 -0.831723
0.138241 0.0435149 -0.050729
-0.250885 0.259684 0.942163
-0.238494 0.110241 -0.930404
-0.170901 0.0486497 -0.156489
0.0884463 -0.200546 0.390486
-0.251292 0.149789 -0.507162
-0.126764 -0.091185 0.341019
-0.226693 0.149389 -0.964035
-0.250782 0.0519294 -0.0800827
-0.0971977 -0.120397 0.409655
-0.195889 -0.0390867 0.320474
-0.227142 0.230013 0.56541
0.0124898 -0.0468255 0.0500097
-0.046422 -0.171246 0.509963
-0.250579 0.130793 -0.614619
-0.251961 0.12655 -0.688569
-0.223158 0.30512 0.73901
-0.228357 0.260472 0.703791
-0.182173 -0.0288272 0.288383
-0.208337 0.200075 0.589546
-0.250544 0.0911398 -0.33556
-0.231809 0.199051 -0.699542
0.198658 -0.174191 0.230545
-0.251853 0.181657 -0.671926
-0.251084 0.155709 -0.491098
-0.226534 0.259173 0.469969
-0.251846 0.178015 -0.636853
0.0335896 -0.135398 0.202371
-0.247126 0.119609 -0.804558
-0.250627 0.125286 -0.655424
-0.194625 0.162315 -0.676065
-0.251839 0.240273 -0.782328
-0.210332 0.0418205 -0.113443
-0.00126255 -0.191279 0.605286
-0.0969255 -0.0241449 0.0387337
0.0830632 -0.144076 0.244573
-0.251034 0.177158 -0.609774
0.033694 0.0740127 -0.124241
-0.168758 -0.0501783 0.334002
-0.251808 0.112993 -0.897845
0.294162 -0.300249 0.499427
-0.214356 0.116352 -0.81978
-0.0924666 0.119041 -0.283055
0.0179097 -0.149933 0.31092
0.022411 -0.117323 0.188917
0.063292 -0.250726 0.540383
-0.251441 0.063369 -0.206979
-0.0807594 -0.0320088 0.0706104
-0.25177 0.119528 -0.804417
-0.251518 0.10328 -0.360006
-0.222867 0.274463 0.643914
-0.250419 0.255387 0.946264
-0.249991 0.0514226 -0.0751119
0.193883 -0.115811 0.121827
-0.201797 0.205288 -0.464204
-0.251572 0.0525017 0.0752536
-0.247537 0.126731 -0.672385
-0.186476 0.0232684 0.0103908
-0.192052 0.180567 0.481321
-0.186251 -0.0247705 0.280856
-0.244643 0.178419 -0.514706
0.0230032 -0.105577 0.16055
-0.251473 0.141979 -0.541529
-0.237165 0.23868 0.831956
0.0928502 -0.14065 0.23917
-0.226463 0.14492 -0.394378
-0.115429 0.145259 -0.349979
-0.249636 0.119664 -0.683141
-0.179815 0.190458 -0.406597
-0.181288 0.190241 -0.435132
-0.250382 0.119324 -0.694817
-0.241628 0.244695 0.955219
-0.210729 0.209092 -0.517652
-0.251474 0.115779 -0.852282
-0.222723 0.204942 0.40379
-0.251471 0.119796 -0.785207
-0.251467 0.0546268 0.0188286
-0.22052 0.199635 0.325808
-0.231134 0.302941 0.751268
0.273946 -0.330505 0.606368
-0.030365 -0.183262 0.489721
-0.25145 0.153269 -0.501649
-0.217306 0.2444 0.281452
-0.222404 0.200244 0.0155233
-0.251403 0.130348 -0.621553
-0.251405 0.192839 -0.808166
-0.201915 0.214963 -0.366762
-0.251391 0.152424 -0.463763
-0.12214 -0.0951159 0.360539
0.188566 -0.0836671 0.0631151
-0.25138 0.116805 -0.859037
-0.251377 0.303213 0.894085
-0.234866 0.282869 0.73209
-0.218825 0.192366 -0.0343722
-0.251346 0.120276 -0.776029
-0.251342 0.112874 -0.988216
-0.251325 0.177661 -0.565931
-0.251194 0.139981 -0.474818
-0.10304 0.166969 0.0876808
-0.191524 0.213537 -0.359551
-0.248167 0.27224 0.923979
-0.116736 0.265521 0.254669
-0.142069 -0.0407736 0.210615
-0.240765 0.130571 -0.489494
-0.226289 0.115504 -0.407814
-0.251286 0.297578 0.895414
0.25946 -0.184412 0.138137
-0.212075 0.330602 0.774404
-0.250456 0.0510644 -0.0157323
-0.225733 0.138059 -0.88291
-0.0415562 -0.038492 0.0544251
-0.185875 -0.0246967 0.26979
-0.24123 0.299729 0.859618
-0.186392 0.165032 0.162185
-0.230352 0.160263 -0.322295
-0.244389 0.164028 -0.415922
-0.205817 0.203393 -0.46477
-0.250777 0.254156 0.950392
-0.222465 0.196399 -0.505322
0.230065 -0.163347 0.170795
-0.0402223 0.0982907 -0.202513
-0.228279 0.306109 0.770394
-0.251234 0.114488 -0.3921
0.0632751 -0.161437 0.281038
0.326985 -0.296298 0.445212
-0.246435 0.284361 -0.769558
-0.198395 0.0282038 0.0198025
-0.251231 0.0458273 -0.0728433
-0.250224 0.140842 -0.520725
0.131689 -0.287401 0.636905
-0.232018 0.243223 0.905939
-0.251151 0.0504148 0.038452
-0.228248 0.218841 0.628627
-0.14682 0.254408 0.104407
0.0190257 -0.164132 0.349962
0.147393 -0.0255326 0.0228841
-0.166319 -0.0394902 0.270583
-0.119283 0.29675 0.409459
-0.251147 0.124154 -0.724501
-0.187272 0.244102 -0.028056
-0.250493 0.051436 -0.00412257
-0.192213 0.174754 0.503951
-0.219852 0.190484 -0.0675705
-0.241764 0.300646 0.870061
-0.227149 0.269837 0.565062
-0.176519 0.0184365 -0.00591622
-0.251137 0.115511 -0.869398
-0.250546 0.131726 -0.61046
-0.225093 0.199951 -0.38066
-0.0821454 -0.0186251 0.0353826
-0.220213 0.0373338 -0.0615325
0.00816654 0.113972 -0.186683
-0.214287 0.201979 0.578898
-0.231181 0.0415127 -0.019326
0.0271656 -0.211694 0.441152
-0.251064 0.11318 -0.936984
-0.251043 0.276063 0.918067
-0.201006 0.2928 0.456079
-0.20291 0.204004 0.754487
-0.25104 0.113198 -0.747734
0.193649 -0.250762 0.410236
-0.246574 0.0512364 -0.010331
-0.250984 0.0515244 -0.0187034
-0.250918 0.112502 -0.984703
-0.201539 0.0217346 0.0190443
-0.249979 0.260623 -0.798128
-0.228895 0.190547 -0.553219
-0.215333 0.256046 -0.84579
-0.250893 0.132167 -0.457718
-0.215866 0.121328 -0.729076
0.0631336 -0.134168 0.22375
-0.25088 0.187754 -0.722915
0.103535 -0.235629 0.465147
-0.191403 0.0847795 -0.273584
-0.111612 -0.095676 0.320425
-0.250803 0.122916 -0.802646
-0.193126 0.159481 -0.0282716
-0.230268 0.289206 0.716306
-0.250733 0.135691 -0.574653
0.128124 -0.275045 0.654373
0.193179 -0.0408652 0.0146868
-0.127317 0.205033 -0.0204451
-0.166127 -0.0447673 0.289571
-0.190503 0.272873 0.260371
-0.250751 0.0499801 -0.148067
-0.122952 0.195048 0.00678748
-0.03376 -0.119319 0.23911
0.0536746 0.0344425 -0.065268
-0.2506 0.111525 -0.715021
0.0384753 0.0553269 -0.0993821
-0.229465 0.154781 -0.914473
-0.250737 0.132136 -0.590257
-0.231524 0.253952 0.953658
-0.137481 -0.0467431 0.225444
-0.250706 0.211537 -0.969803
0.173297 -0.315368 0.630125
0.108214 -0.136889 0.224994
-0.250073 0.178614 -0.626714
-0.228355 0.164984 -0.900833
-0.231582 0.154835 -0.904652
-0.249927 0.121886 -0.674465
-0.25064 0.0492984 -0.0261152
-0.191521 0.294741 0.435182
-0.117655 0.209435 0.444965
-0.130152 -0.0530443 0.19932
-0.250633 0.1227 -0.744114
-0.23096 0.194546 -0.591026
-0.180906 0.0120829 0.0445438
-0.250598 0.138111 -0.562728
-0.211365 0.027303 0.138523
0.0280125 -0.130774 0.220278
-0.191373 0.195646 0.663457
-0.218269 0.233776 0.882507
-0.249857 0.184112 -0.674964
-0.236529 0.200512 -0.735864
-0.00103082 0.0444678 -0.105262
-0.250573 0.11358 -0.706891
-0.226187 0.0938144 -0.316626
-0.250036 0.178942 -0.589729
-0.250453 0.187937 -0.709185
-0.116621 0.155221 -0.369195
-0.250096 0.273707 -0.775803
-0.147978 0.216452 0.658743
-0.22511 0.24965 0.350986
-0.2259 0.202039 -0.662299
-0.219305 0.257504 0.380167
-0.245559 0.265405 0.914756
-0.220763 0.264964 0.405486
-0.250469 0.0993063 -0.335286
-0.216341 0.181113 -0.921342
-0.250417 0.178721 -0.559403
-0.157095 -0.0196623 0.159758
-0.167451 0.155142 -0.310231
-0.116054 0.294776 0.400631
0.0873399 -0.172263 0.314165
-0.242885 0.0463472 -0.0854653
-0.250393 0.111034 -0.75131
-0.250354 0.12575 -0.73914
-0.216994 0.22514 0.815581
-0.250323 0.125788 -0.445548
-0.215751 0.165393 -0.969811
-0.181697 0.210962 -0.316228
-0.250121 0.158768 -0.48977
-0.249634 0.277188 0.911603
0.132997 0.0575762 -0.0619708
-0.226199 0.12391 -0.812604
-0.222232 0.224479 0.260797
-0.25002 0.191474 -0.838036
-0.171654 0.180292 -0.480354
-0.250093 0.273565 -0.783194
-0.229208 0.235578 0.673724
-0.196025 0.0203546 0.108784
-0.0234684 -0.0727233 0.0929153
-0.236409 0.119676 -0.901349
-0.249761 0.130976 -0.46466
-0.220955 0.189945 -0.0737288
-0.249989 0.0516044 -0.042024
0.29793 -0.287019 0.448929
0.0386607 -0.0679687 0.10095
-0.161864 0.200508 0.689568
-0.249669 0.265218 0.935475
-0.244351 0.269004 -0.765012
0.218947 -0.318349 0.579814
-0.046542 -0.119747 0.262406
-0.220206 0.206285 -0.180014
-0.249836 0.286375 -0.770133
-0.249718 0.188749 -0.719708
-0.198256 0.0364712 -0.0154444
-0.246545 0.0889041 -0.315083
-0.19568 0.200165 -0.455326
-0.249707 0.132313 -0.585965
0.198152 -0.107243 0.10496
-0.168108 0.219512 0.77758
-0.249669 0.0887155 -0.306445
-0.0322958 0.16804 -0.286304
-0.221985 0.200527 -0.369748
-0.220144 0.204769 -0.0754727
-0.214847 0.181163 0.0375616
-0.244322 0.28065 0.879644
0.17771 -0.00478237 -0.0144262
-0.191448 0.290512 0.420414
-0.161338 0.120486 -0.433086
-0.201954 0.0707698 -0.228169
-0.126882 -0.0276021 0.0651915
-0.249393 0.170374 -0.504936
-0.24945 0.140087 -0.534542
-0.117594 0.262846 0.233206
-0.171501 -0.00900129 0.17779
-0.249306 0.269983 0.920764
0.131035 -0.0537851 0.0623986
-0.218069 0.200804 -0.110636
-0.243659 0.240517 0.84157
-0.228098 0.24057 0.569613
-0.244146 0.279868 -0.790404
0.235145 -0.207624 0.265394
-0.246567 0.118171 -0.911097
-0.223792 0.147996 -0.326204
-0.249433 0.263896 -0.814013
-0.249349 0.138664 -0.543345
0.112776 -0.268487 0.535738
-0.109594 0.140115 -0.325791
-0.231659 0.28941 0.754589
-0.0428309 -0.101875 0.214625
-0.107611 0.286041 0.374601
0.328237 -0.308633 0.44927
-0.230211 0.189843 -0.374882
-0.221222 0.278142 0.617581
-0.215462 0.235766 0.905944
-0.249342 0.182593 -0.656421
-0.226095 0.205484 0.464757
-0.249332 0.260985 0.936814
-0.249307 0.0576667 -0.214061
-0.246865 0.190783 -0.715001
-0.249294 0.273461 -0.789743
-0.230644 0.217377 0.342538
0.0611743 -0.00822915 -0.0131837
-0.243899 0.259636 0.923364
0.0137552 -0.22097 0.509446
0.098024 -0.236101 0.454901
-0.249252 0.200334 -0.78695
-0.249234 0.192356 -0.830993
-0.15742 0.0776865 -0.284763
-0.249186 0.123451 -0.6632
0.18802 -0.206245 0.314611
-0.247455 0.121723 -0.768135
-0.247262 0.169604 -0.489994
0.0935101 -0.175402 0.311356
-0.248497 0.165527 -0.488793
-0.127846 -0.0811924 0.327763
-0.0255796 -0.167018 0.395596
-0.24709 0.115439 -0.39535
-0.230909 0.235781 0.855112
-0.0662732 -0.083561 0.166793
-0.0569867 -0.15835 0.437617
-0.249067 0.273555 0.922032
-0.236494 0.201339 -0.711427
-0.247648 0.0818002 -0.29464
-0.216703 0.221359 0.0392392
-0.248686 0.118002 -0.815072
-0.0667025 0.0437866 -0.119773
-0.215806 0.218954 -0.864261
-0.222711 0.183406 -0.216972
-0.247742 0.195081 -0.810825
-0.210734 0.218555 -0.870026
-0.246391 0.0513195 -0.0846482
-0.173604 0.181147 -0.499345
-0.171602 0.177169 0.499967
-0.216859 0.20048 0.459682
-0.103052 -0.0557502 0.165486
0.0585836 0.0541138 -0.0853379
-0.223817 0.214596 0.254599
-0.247941 0.278523 0.910917
-0.20135 0.0300524 0.0597552
-0.247087 0.0536376 -0.140309
-0.121015 0.236913 0.117693
0.183773 -0.10709 0.118236
0.238703 -0.270643 0.425366
-0.246597 0.0793575 -0.279428
-0.0459009 -0.159373 0.424115
-0.178984 0.317003 0.579141
-0.249001 0.114965 -0.721339
-0.231359 0.298439 0.746126
0.0884564 0.0672905 -0.0830341
-0.246855 0.0650824 -0.22393
-0.2331 0.123656 -0.424768
0.10869 -0.255283 0.659189
-0.107064 0.0570997 -0.166226
-0.246696 0.0855385 -0.305745
-0.175955 0.191043 -0.395105
-0.247498 0.181193 -0.609004
-0.0483089 -0.116693 0.286777
-0.167559 0.00762396 0.0302367
-0.172859 0.00948126 0.0487419
-0.125661 0.149758 0.0208407
-0.2306 0.264663 0.745338
-0.0207998 -0.0454664 0.0455664
0.0131185 -0.206031 0.604779
0.0331827 0.10573 -0.160954
-0.248994 0.201263 -0.845677
-0.204548 0.0852896 -0.283612
-0.225286 0.220599 0.334515
-0.209261 0.180377 0.177095
-0.248501 0.154857 -0.480384
-0.240136 0.116815 -0.600168
-0.131532 -0.111019 0.429681
-0.115702 0.159399 -0.36538
0.323345 -0.31928 0.552791
-0.16657 0.0950642 -0.390346
-0.234209 0.164409 -0.841566
0.174431 -0.103998 0.112309
-0.23721 0.0485339 -0.0613183
-0.208346 0.291441 0.530375
-0.125164 0.063242 -0.187366
0.153298 0.00418124 -0.0148039
-0.215443 0.333917 0.788786
-0.246816 0.0515371 -0.0797028
0.228079 -0.23378 0.344833
0.183078 -0.26823 0.448379
-0.197686 0.0940544 -0.30368
-0.248764 0.0534767 0.00435862
0.143506 -0.17838 0.275979
-0.190237 0.204969 -0.410026
-0.248977 0.234075 -0.792223
-0.142642 -0.0979046 0.388052
-0.165792 0.282055 0.289587
-0.146427 0.119868 -0.380315
-0.24771 0.176329 -0.535036
-0.24674 0.0516426 -0.109621
-0.219935 0.020625 0.198618
-0.242897 0.0674192 -0.258893
-0.234491 0.200407 -0.721197
-0.0716503 0.163884 -0.325797
-0.247066 0.174707 -0.520023
-0.230144 0.254787 0.730094
0.163543 -0.259441 0.474737
-0.246803 0.196714 -0.766212
-0.0327036 -0.162117 0.408896
-0.248478 0.193888 -0.839191
-0.247689 0.099879 -0.361083
-0.234631 0.273939 -0.799183
0.00985516 -0.218507 0.502648
-0.22479 0.210765 -0.856061
0.174253 -0.304097 0.584717
-0.229232 0.194112 -0.453457
-0.24737 0.264079 -0.795991
-0.247174 0.0507792 -0.0350095
-0.222561 0.189156 -0.20579
0.158488 -0.304378 0.596386
-0.245066 0.178957 -0.535149
-0.247784 0.114727 -0.900309
-0.23568 0.180034 -0.833702
-0.24724 0.0939587 -0.319626
0.263277 -0.325646 0.571076
-0.221623 0.199725 -0.490014
-0.247 0.0507994 0.0756352
-0.248212 0.114477 -0.705195
-0.115589 0.0733285 -0.248431
-0.246831 0.0581938 -0.179371
0.073508 -0.24851 0.505913
-0.210995 0.0365508 -0.0244096
-0.246926 0.113816 -0.915281
-0.24637 0.0568963 -0.174543
-0.225469 0.110062 -0.355306
-0.182233 0.162792 0.14356
-0.246733 0.0687709 -0.23964
-0.216348 0.209141 -0.30479
0.168978 -0.164207 0.229104
-0.184281 0.145627 -0.579183
-0.0801333 0.00713355 -0.0388833
-0.246609 0.0539103 0.0358643
-0.216195 0.0397295 0.120515
-0.24888 0.0528669 -0.0251413
-0.246336 0.180548 -0.583729
-0.220126 0.1649 -0.191415
-0.232397 0.115217 -0.935494
-0.220676 0.190477 -0.156568
-0.159496 -0.0734224 0.359257
-0.248222 0.186589 -0.676658
-0.108921 0.053013 -0.162446
0.0187528 -0.191373 0.399389
0.143908 -0.117518 0.162825
-0.247654 0.114523 -0.391432
-0.246504 0.0900161 -0.320039
-0.247694 0.100674 -0.354631
-0.229872 0.245826 0.755805
-0.231765 0.12057 -0.840723
0.12848 -0.219933 0.405347
-0.247088 0.0553985 -0.149749
-0.218968 0.214109 0.159502
-0.241379 0.184697 -0.609876
-0.205741 0.0331079 0.117387
-0.227663 0.176708 -0.148057
-0.00582405 0.0790986 -0.152293
-0.204411 0.247921 0.0991446
0.107919 -0.219308 0.404637
-0.215834 0.166726 -0.129654
-0.230773 0.256134 0.748895
-0.228602 0.195896 -0.60417
-0.246861 0.189072 -0.690146
0.262731 -0.329761 0.596881
-0.19475 0.176791 0.463533
-0.246612 0.109735 -0.379265
-0.234249 0.268221 0.776888
-0.247038 0.123049 -0.788193
-0.011204 -0.0409705 0.0403051
-0.195049 0.205299 0.8049
-0.152671 0.0406849 -0.13104
-0.219257 0.2917 0.62333
-0.212238 0.165348 -0.97462
0.0637811 -0.139426 0.221097
-0.247574 0.166254 -0.49983
-0.147475 0.071419 -0.280847
-0.0515687 -0.130649 0.325558
-0.196747 0.184773 0.552917
-0.209205 0.211721 0.768867
-0.248789 0.122745 -0.783301
-0.183412 0.20343 0.75875
0.0178791 -0.145648 0.295535
-0.247867 0.258514 -0.770902
-0.206026 0.326825 0.747634
-0.242501 0.113601 -0.648174
-0.226498 0.212163 0.237795
0.0937674 -0.229903 0.665148
-0.247408 0.0767579 -0.2911
-0.196093 0.0668766 -0.23264
-0.246256 0.180014 -0.600035
0.0885381 -0.249387 0.639717
-0.248768 0.214539 -0.956127
-0.232889 0.338574 -0.780919
0.108509 -0.156974 0.2681
-0.215795 0.220192 0.804565
-0.240734 0.0522495 -0.153606
-0.246994 0.189747 -0.839858
-0.181195 -0.0448678 0.321344
-0.232906 0.255781 0.780545
-0.21636 0.239292 0.196127
-0.24679 0.113586 -0.955015
-0.24635 0.11488 -0.920579
-0.24874 0.217519 -0.937857
0.11738 -0.147006 0.240717
-0.00192947 -0.200648 0.570852
-0.213455 0.294691 0.643079
-0.247058 0.0967047 -0.339473
0.243273 -0.321638 0.6818
-0.215309 0.250078 0.248194
-0.246382 0.184446 -0.643537
-0.224029 0.242356 0.361284
0.113325 -0.0886564 0.122215
0.311485 -0.299491 0.385986
-0.107182 -0.0485141 0.141057
-0.159604 0.215961 -0.219664
0.0285302 -0.0197045 0.0121576
-0.241104 0.17008 -0.430318
-0.247055 0.0579808 -0.174792
-0.248274 0.15593 -0.466535
-0.234167 0.229439 0.442661
-0.181398 0.231321 0.840074
-0.220711 0.184878 -0.175346
-0.205699 0.220036 -0.15609
-0.246841 0.194536 -0.849263
-0.125837 0.204795 0.375187
-0.205355 0.283523 0.420487
-0.230463 0.192543 -0.443124
-0.248692 0.265774 -0.784633
-0.216954 0.220267 -0.901796
-0.221784 0.229854 0.854613
0.125981 -0.245327 0.68156
-0.135571 0.178857 -0.41705
0.0077477 -0.206314 0.480741
0.094106 -0.205059 0.379883
-0.159079 0.214928 0.76252
-0.169638 0.204823 0.727043
-0.248685 0.110735 -0.731808
-0.216841 0.223379 0.810046
-0.217415 0.191093 0.270879
0.174063 -0.194001 0.289302
-0.247606 0.170005 -0.500961
-0.231027 0.320158 0.829409
-0.238181 0.135823 -0.457568
-0.248685 0.269659 0.930623
0.0897363 -0.228736 0.653318
0.1644 -0.00510931 -0.00785873
-0.155371 0.268284 0.170468
-0.226555 0.19416 -0.349869
-0.191088 0.0812349 -0.280915
-0.248671 0.0526478 -0.11585
0.188339 -0.265962 0.455398
-0.0267934 -0.118189 0.228738
-0.214405 0.233411 0.121923
-0.247281 0.135471 -0.466201
-0.248657 0.309925 -0.782251
-0.0612919 0.0143714 -0.065076
-0.171335 0.220418 0.736884
-0.14741 0.0389893 -0.127171
0.138217 -0.304851 0.60401
-0.216178 0.21013 -0.26536
-0.24706 0.057106 -0.208709
0.158013 -0.255391 0.469325
-0.198886 0.0329688 0.0455994
-0.241235 0.196842 -0.785343
-0.247081 0.270718 0.91412
-0.208116 0.291617 0.491713
-0.246586 0.0515029 -0.11928
-0.0108058 0.0860397 -0.164349
0.0785091 -0.169438 0.298488
0.14896 -0.23969 0.43506
-0.230347 0.260395 0.705309
0.218253 -0.239018 0.349214
-0.20515 0.182419 -0.694172
-0.244256 0.115032 -0.659083
0.251513 -0.180662 0.173325
-0.188382 0.166555 0.147608
-0.000206946 -0.0176165 0.00811263
-0.231614 0.185418 -0.460923
-0.248574 0.128667 -0.613842
-0.248622 0.177441 -0.553668
-0.167132 0.259161 0.0929171
-0.248612 0.222368 -0.918324
-0.201501 0.202644 0.720192
-0.149427 0.0366208 -0.102449
-0.247254 0.0685565 -0.264801
0.0588034 -0.198713 0.390461
-0.246768 0.136204 -0.510553
-0.248598 0.245817 -0.783117
-0.246149 0.0959627 -0.325424
-0.187607 0.300992 0.469301
-0.242817 0.166557 -0.849096
-0.199825 0.154284 -0.717899
-0.212452 0.205211 -0.583471
-0.191676 0.208181 0.78498
-0.248577 0.187114 -0.684312
-0.247263 0.190854 -0.721224
-0.0865087 0.220184 0.224077
-0.247462 0.269817 -0.775344
-0.195522 0.228611 -0.147066
-0.247066 0.12486 -0.689101
0.298538 -0.314232 0.544114
-0.236013 0.109344 -0.375989
-0.220897 0.19968 -0.455411
-0.247111 0.0598474 -0.224702
-0.247008 0.0640072 -0.214458
0.0495587 0.0429161 -0.0771213
-0.219921 0.179808 -0.109993
-0.241076 0.300024 0.845298
-0.226106 0.229881 0.800783
-0.0382885 -0.00259117 -0.0300628
0.157514 0.0259796 -0.0380607
-0.247133 0.139581 -0.474463
-0.0757562 0.0787821 -0.193851
-0.0505853 -0.0316645 0.010283
-0.246569 0.0742216 -0.260532
0.0235495 -0.0631493 0.0973174
0.0748327 -0.00243466 -0.00740658
-0.246348 0.0506541 -0.0743263
-0.237979 0.0866426 -0.307635
-0.246392 0.050958 -0.129592
-0.247768 0.17132 -0.51523
-0.0783247 -0.13752 0.443809
0.14758 -0.256677 0.488798
0.247786 -0.145654 0.108339
0.174181 -0.0607326 0.0555337
-0.248539 0.0453786 -0.0124046
0.0730634 -0.194397 0.385283
-0.195663 0.17525 0.346497
0.133643 0.0155483 -0.0210751
-0.188309 0.231383 -0.168609
-0.246809 0.0558389 -0.200606
-0.00174948 -0.1295 0.264943
-0.20203 0.216685 -0.34563
-0.247375 0.246234 0.974667
-0.234935 0.28449 0.774918
-0.248518 0.109473 -0.742761
0.129046 -0.239782 0.686188
-0.218683 0.1923 0.26266
-0.236781 0.20507 -0.960242
-0.227482 0.22484 0.275597
-0.0579153 -0.00118255 -0.0291933
-0.242 0.183973 -0.595518
0.0710799 -0.263726 0.531801
-0.216147 0.166179 -0.165903
-0.248518 0.190157 -0.725068
0.00231467 -0.084034 0.129021
0.143616 -0.248363 0.466048
-0.0217902 -0.109026 0.190474
-0.206076 0.273846 0.398735
-0.2185 0.210444 0.0159001
-0.246251 0.0563495 -0.169877
-0.241163 0.0533425 -0.130325
-0.247636 0.135595 -0.470096
-0.235899 0.104161 -0.368267
-0.220601 0.224472 0.224965
-0.0305445 0.150398 -0.265682
-0.246941 0.190036 -0.836626
-0.0180947 0.120843 -0.224213
-0.247854 0.119236 -0.826456
-0.155392 -0.077523 0.395384
-0.246076 0.210572 -0.955444
-0.222881 0.200747 0.293855
-0.199345 0.268334 0.305004
-0.241409 0.0686565 -0.238739
-0.237652 0.242944 0.959021
-0.217309 0.0411979 -0.106915
-0.187244 0.00563972 0.150658
-0.03456 0.13751 -0.251116
-0.221407 0.215987 0.216937
-0.0321149 0.16234 -0.29319
-0.241654 0.0555985 -0.149749
-0.202228 0.300705 0.574343
-0.246293 0.0554363 0.0503288
-0.24784 0.299897 0.889167
-0.000540842 0.0991185 -0.17287
-0.145754 0.331382 0.598712
-0.182817 0.144121 -0.560269
-0.0577571 -0.0474428 0.0942892
-0.246797 0.0507093 0.0168565
-0.198148 0.300364 0.536361
-0.220045 0.189015 -0.0111293
-0.181911 0.198169 -0.394265
-0.247994 0.149206 -0.479052
-0.246339 0.120003 -0.785459
-0.0549937 0.098875 -0.22838
-0.193914 0.338799 0.744874
-0.248462 0.161244 -0.487066
-0.22022 0.284805 0.609068
-0.00724775 -0.135753 0.274383
0.215274 -0.327556 0.670848
-0.248459 0.129527 -0.606027
-0.221265 0.245062 0.279464
-0.240416 0.301122 0.849833
-0.243252 0.122171 -0.7224
-0.248452 0.109668 -0.749244
-0.204953 0.0643272 -0.176553
-0.229656 0.146368 -0.412475
-0.20777 0.169868 -0.0182721
-0.248182 0.240259 -0.784101
-0.0800812 -0.156076 0.537602
0.258788 -0.251299 0.369603
-0.247642 0.279543 0.90425
-0.240859 0.196727 -0.760642
-0.247772 0.14551 -0.480404
-0.209994 0.235713 0.02368
-0.212913 0.130477 -0.815268
0.103856 -0.0957065 0.135831
-0.222617 0.211784 0.134652
-0.196484 0.0895468 -0.316754
-0.246728 0.0567373 -0.159344
-0.18149 0.334341 0.694729
-0.239864 0.275715 -0.783743
-0.228919 0.190613 -0.478823
-0.102004 0.196334 -0.381763
-0.092138 0.265783 0.325004
-0.18208 0.0442099 -0.133096
-0.106781 0.0843071 -0.225757
-0.210806 0.0301422 0.16075
-0.246222 0.0507125 -0.0647075
-0.0167732 -0.170917 0.406361
0.0712468 -0.0876478 0.117154
-0.172725 -0.00130196 0.140355
-0.219942 0.187844 -0.0672018
-0.247897 0.0889903 -0.30971
-0.172114 0.269245 0.165748
0.183676 -0.264534 0.70113
-0.227766 0.294683 -0.781148
-0.243704 0.250092 0.992247
-0.246774 0.123051 -0.775389
-0.221994 0.294036 0.665067
-0.246728 0.0663123 -0.253932
-0.167106 0.0215954 -0.0444482
-0.246936 0.17041 -0.505498
0.10804 0.010138 -0.0153378
-0.246035 0.0651054 -0.219507
-0.196923 0.259821 0.188427
-0.0366569 0.0505025 -0.125661
-0.057462 -0.113782 0.270863
-0.220585 0.149126 -0.98001
0.190914 -0.266926 0.707653
-0.189241 0.198651 -0.557302
-0.227463 0.274943 0.699681
-0.24676 0.119702 -0.777086
-0.248278 0.134905 -0.56405
-0.116083 -0.0593848 0.210269
0.037252 0.0267691 -0.0630125
0.273363 -0.30852 0.525029
-0.177214 0.228281 -0.205466
-0.141425 -0.0353589 0.179979
-0.212061 0.224771 0.878837
-0.245933 0.179357 -0.549951
0.306435 -0.33455 0.595746
-0.246608 0.124062 -0.697878
0.19824 -0.144588 0.169647
0.278172 -0.324891 0.581268
-0.116657 -0.00246596 0.00837697
0.0995506 -0.24066 0.655381
-0.236303 0.274419 0.794161
-0.200385 0.174582 0.171124
-0.13726 -0.0698095 0.30472
-0.201917 0.210528 0.750599
-0.248264 0.251253 -0.776745
0.113046 -0.284762 0.610421
-0.246591 0.1215 -0.756586
-0.166392 0.286709 0.349252
-0.243659 0.165731 -0.458782
-0.245623 0.178672 -0.5455
-0.129324 0.0801838 -0.234063
-0.20631 0.109869 -0.459132
-0.244953 0.190231 -0.85351
-0.247121 0.105482 -0.363623
-0.237645 0.194708 -0.864323
-0.186269 0.257958 0.114733
-0.246607 0.123359 -0.769554
-0.247 0.194714 -0.7841
-0.241808 0.19529 -0.714207
-0.225478 0.215748 0.514547
-0.24139 0.116411 -0.815695
-0.232435 0.229578 0.433176
-0.246678 0.0451508 -0.0741563
-0.215325 0.239886 0.240867
-0.246669 0.115441 -0.870655
-0.216963 0.254285 -0.82535
-0.246049 0.113628 -0.969805
-0.221872 0.0445412 0.114464
-0.241816 0.19904 -0.759635
-0.246268 0.0507304 -0.0148119
-0.0817771 -0.104006 0.305686
-0.157383 0.0232464 -0.0553346
-0.131523 -0.106302 0.439498
-0.24656 0.0666626 -0.230949
-0.248121 0.111 -0.726897
-0.235406 0.257312 -0.82836
-0.215314 0.189961 0.245158
-0.231997 0.128865 -0.474625
0.133918 -0.23949 0.430513
-0.157149 -0.0205033 0.14229
-0.246104 0.0709036 -0.25934
-0.215219 0.196174 0.438202
-0.162423 0.0162827 -0.0248353
-0.161894 0.00832045 0.0184547
-0.247333 0.112259 -0.970468
-0.232517 0.325051 0.83433
-0.246503 0.0852044 -0.299518
-0.246819 0.170634 -0.495599
0.158396 -0.26953 0.514685
-0.241367 0.174036 -0.419344
-0.0969568 -0.135411 0.464467
0.20008 -0.298113 0.550724
-0.248083 0.246968 -0.807286
0.0881416 -0.0837053 0.108506
-0.247819 0.0979533 -0.32966
-0.235615 0.0944161 -0.324185
0.00327114 -0.180243 0.395596
-0.223302 0.280657 0.665566
-0.17376 0.183062 0.597648
-0.246313 0.133184 -0.459828
0.00422066 -0.208017 0.553793
-0.175214 -0.0228858 0.228474
-0.247939 0.18042 -0.595777
-0.189415 0.21449 -0.494902
-0.248052 0.110934 -0.704888
-0.035862 -0.166312 0.405484
-0.21741 0.315528 0.725909
-0.196545 0.0410171 -0.0414814
-0.085987 -0.14794 0.495625
-0.248048 0.110227 -0.735679
-0.247951 0.122921 -0.644414
-0.154335 0.170701 -0.45056
-0.236619 0.123935 -0.445031
-0.247589 0.192977 -0.845781
-0.244542 0.0506201 0.104915
0.0184739 0.146535 -0.21268
-0.245715 0.117002 -0.815424
-0.236787 0.25068 0.965902
-0.115224 0.241487 0.156929
-0.248007 0.206765 -0.968262
-0.221697 0.255844 0.979538
-0.222778 0.123179 -0.794771
-0.247267 0.259375 0.935142
0.0945407 0.034607 -0.0546807
-0.246464 0.116965 -0.835819
-0.226707 0.189222 -0.341863
-0.24688 0.184226 -0.650594
0.25008 -0.297133 0.471731
-0.187288 0.296191 0.439652
0.262998 -0.306713 0.518911
-0.246695 0.189321 -0.695534
-0.24793 0.116074 -0.982196
-0.140649 0.328721 0.571952
-0.246761 0.109029 -0.374011
-0.247888 0.133235 -0.457238
0.26759 -0.199649 0.176191
-0.245831 0.179138 -0.540289
-0.240616 0.255238 0.889657
-0.23444 0.255047 0.794377
0.0584099 0.045225 -0.0752239
-0.246547 0.113188 -0.960225
-0.227869 0.189854 -0.405115
-0.191599 0.028722 -0.067247
0.0226559 -0.00882251 -0.00861487
-0.191076 0.212245 0.805445
-0.246268 0.179314 -0.554704
-0.220067 0.187643 -0.903215
-0.246577 0.0944126 -0.345047
-0.192309 0.33079 0.706916
-0.246865 0.274999 0.903154
-0.111454 -0.0739592 0.256202
-0.247833 0.249434 -0.780056
0.132802 -0.0151308 0.0132297
-0.246701 0.0629586 -0.20949
-0.156477 0.00835297 0.0102315
0.228209 -0.25214 0.375082
-0.245663 0.174431 -0.510566
0.14822 -0.251079 0.468875
-0.221678 0.225704 0.174358
-0.201738 0.263288 0.241969
-0.246257 0.191309 -0.806926
0.129962 -0.223007 0.410847
-0.24661 0.186291 -0.664713
-0.246838 0.324954 -0.783265
-0.246358 0.0806133 -0.289218
-0.219573 0.210911 -0.0512479
-0.246563 0.129557 -0.443099
-0.00805698 0.0420883 -0.108348
0.0541277 0.00898969 -0.0308796
-0.232355 0.108871 -0.950719
-0.247159 0.190621 -0.70922
-0.072172 0.0252642 -0.0905473
0.118649 -0.240562 0.469625
0.0538564 -0.243556 0.570393
-0.245925 0.198388 -0.760948
-0.190086 0.307772 0.520744
-0.23102 0.160141 -0.87622
-0.246064 0.10341 -0.35629
-0.137552 0.194668 -0.124955
-0.246528 0.189686 -0.766137
-0.246962 0.290258 0.894309
-0.247725 0.134894 -0.552137
-0.246749 0.178301 -0.560212
-0.156581 0.235699 -0.0794116
-0.219319 0.200468 0.422114
-0.170844 0.178294 0.54063
-0.23832 0.18237 -0.570611
-0.137814 0.319455 0.560266
0.0349217 -0.138929 0.229155
-0.246324 0.123571 -0.7197
0.043865 -0.235742 0.490484
-0.247718 0.169703 -0.458928
-0.192519 0.198955 -0.445277
-0.241501 0.0516826 0.0447577
-0.247403 0.124117 -0.623937
-0.201575 0.200452 0.689429
-0.24625 0.0598057 -0.209234
0.0876564 -0.235379 0.659349
0.243084 -0.236092 0.337963
-0.0481419 -0.154862 0.39546
-0.212558 0.122272 -0.707855
-0.246865 0.0507511 -0.0408217
-0.231806 0.247417 0.474837
-0.238072 0.285317 0.815063
-0.24608 0.280435 -0.769415
-0.229535 0.233167 -0.840262
-0.247683 0.253243 -0.771194
0.279172 -0.320468 0.565115
-0.171758 0.334446 0.654817
-0.24579 0.116237 -0.400151
-0.218316 0.218027 0.630384
-0.246721 0.275743 -0.789318
0.146843 -0.309153 0.612124
-0.246548 0.289808 0.88917
-0.246923 0.284765 0.895225
-0.219808 0.185888 -0.954268
-0.226738 0.0448177 0.0696887
-0.219441 0.150573 -0.841312
0.043331 -0.19108 0.395765
-0.246308 0.170305 -0.48479
-0.242001 0.0991748 -0.344461
-0.231378 0.225255 0.364402
-0.246411 0.18 -0.57412
-0.246375 0.052766 -0.121222
-0.246355 0.185685 -0.65943
-0.21986 0.274167 0.465903
-0.121068 0.0753608 -0.260736
-0.192223 0.0145147 0.159494
-0.241981 0.115441 -0.866833
-0.205332 0.021632 0.179699
-0.0366051 0.115156 -0.224707
-0.247233 0.0579988 -0.171339
-0.246958 0.198268 -0.769845
-0.216173 0.190912 0.195781
-0.0968379 -0.0158482 0.0357905
-0.247558 0.112095 -0.994953
-0.242472 0.189538 -0.661647
-0.24588 0.164483 -0.454565
-0.138642 -0.0193069 0.0442778
-0.122789 0.18389 0.424801
-0.224084 0.205816 0.273911
-0.225794 0.0447925 0.0761898
-0.0925432 0.125225 -0.302953
-0.17745 0.269395 0.157211
-0.246237 0.260586 0.915213
-0.115118 -0.0592701 0.202183
-0.160561 0.0918562 -0.373326
-0.237435 0.115088 -0.875679
-0.13591 0.289865 0.351471
-0.0307393 -0.0978212 0.186265
-0.247454 0.0509435 0.0684331
-0.228012 0.223927 0.464754
0.0329309 -0.159674 0.305906
-0.246552 0.0519991 0.00504931
-0.228187 0.23968 0.424759
-0.229842 0.313621 0.805549
-0.247429 0.198112 -0.79297
-0.190131 -0.00339983 0.214299
-0.247429 0.198313 -0.755258
-0.0709999 0.0463038 -0.135164
-0.247415 0.124978 -0.630634
-0.233147 0.280197 0.750648
-0.160021 0.0823611 -0.269306
-0.247415 0.26463 -0.813001
-0.0328557 -0.116599 0.23014
0.0235812 -0.0886641 0.140584
0.0622873 -0.0127089 -0.00511105
-0.246561 0.0539683 0.0445027
-0.212538 0.2898 -0.810644
-0.22269 0.180958 -0.168482
-0.247384 0.067454 -0.224818
-0.0819254 0.160111 -0.326563
0.153157 -0.254202 0.465751
-0.200806 0.24949 0.0933431
-0.247363 0.110614 -0.722237
-0.239944 0.096423 -0.348551
-0.165722 0.0896616 -0.292262
-0.241155 0.0448012 -0.0952908
-0.225996 0.240371 0.374818
-0.229609 0.175652 -0.324246
-0.246553 0.199633 -0.785936
-0.212847 0.211165 -0.237837
-0.241859 0.184163 -0.615299
-0.209511 0.200818 0.615308
-0.0660784 -0.14481 0.410707
-0.246182 0.190971 -0.703978
-0.141789 0.0782621 -0.250678
-0.24656 0.188679 -0.68676
-0.221275 0.039205 0.0341913
-0.246459 0.12446 -0.618764
0.123637 -0.289699 0.578839
-0.0216633 -0.129319 0.277772
-0.215752 0.073438 -0.245801
-0.247301 0.0575067 0.0496305
-0.239732 0.255965 0.845219
-0.132201 0.310058 0.450267
-0.120992 0.0293046 -0.0861139
-0.247283 0.245483 0.952823
-0.22269 0.12166 -0.677383
-0.247012 0.274969 0.934737
0.123475 -0.1979 0.355403
-0.156656 0.27508 0.229896
-0.176518 0.242461 -0.103579
-0.221591 0.199802 0.282137
0.048985 -0.155791 0.289315
-0.246125 0.207101 -0.961711
-0.166432 -0.050387 0.305403
-0.222095 0.238506 -0.887077
0.107913 -0.173789 0.296366
-0.247276 0.0469333 -0.111544
-0.13535 0.193032 0.285601
-0.181183 -0.000518235 0.175137
-0.22699 0.196013 -0.565187
0.0476532 -0.220502 0.629224
-0.247276 0.191994 -0.730441
-0.105156 -0.104516 0.328918
-0.240245 0.11439 -0.944964
-0.246543 0.299508 0.885311
-0.220238 0.228875 -0.83164
-0.0767527 -0.00210076 -0.0123455
-0.247248 0.12022 -0.841156
-0.134517 0.197653 0.281539
-0.223643 0.199103 -0.59578
-0.247241 0.143419 -0.495719
-0.240327 0.0456933 0.00462672
0.0833143 -0.265926 0.559465
0.133454 -0.135618 0.206063
-0.24629 0.138675 -0.470274
-0.172003 0.0870843 -0.353205
-0.221915 0.230084 0.7713
-0.217045 0.194828 0.30672
-0.245755 0.131779 -0.457997
-0.219462 0.275837 0.474374
-0.246343 0.119981 -0.654473
-0.246428 0.0456568 -0.034593
0.193512 -0.153606 0.193244
-0.246683 0.280436 0.90017
0.187759 -0.217499 0.34344
-0.191532 0.200318 0.789815
-0.221994 0.111086 -0.370447
-0.245581 0.0518907 -0.095241
-0.230194 0.27609 0.710048
-0.242463 0.271395 -0.762586
0.298156 -0.295608 0.480213
-0.246229 0.0683799 -0.234373
-0.236355 0.238531 0.839956
-0.247127 0.122203 -0.797534
0.0475976 -0.109939 0.164745
-0.21983 0.206542 0.56559
-0.246608 0.279846 0.895328
-0.128743 0.188533 0.341998
-0.204023 0.230468 -0.0271691
-0.114702 -0.105296 0.376946
-0.0766796 -0.153874 0.505907
-0.247099 0.122269 -0.778436
-0.0279818 -0.0511522 0.0538425
0.0120719 0.148395 -0.219746
-0.227775 0.097216 -0.347125
-0.245982 0.214196 -0.935261
0.239187 -0.329638 0.620398
-0.213184 0.188777 -0.944615
-0.247047 0.124529 -0.677668
-0.181464 0.320867 0.619939
-0.0368268 -0.14108 0.333555
-0.224006 0.227687 0.676497
0.169694 -0.0831193 0.0773439
-0.206953 0.256003 0.258818
0.192833 -0.320668 0.655002
-0.247008 0.120283 -0.414823
-0.20941 0.104861 -0.346057
-0.246742 0.198322 -0.764534
0.0673236 -0.0884668 0.119109
-0.206828 0.260215 0.270745
-0.247001 0.159616 -0.462542
-0.0275673 -0.140271 0.336755
-0.192392 0.158689 -0.6655
-0.245465 0.216457 -0.950372
-0.0716132 -0.029253 0.0561172
-0.159455 0.2042 0.684935
-0.236762 0.193263 -0.65103
-0.245507 0.269683 0.905404
-0.12185 0.209061 0.248414
-0.192458 0.30308 0.492015
-0.246953 0.118728 -0.860456
0.0479819 -0.074871 0.112947
-0.136984 0.126998 -0.368777
-0.2259 0.0784656 -0.266545
-0.201562 0.343807 0.764179
-0.246935 0.27712 -0.800212
-0.246052 0.169959 -0.455491
-0.0950335 -0.0635655 0.171617
-0.231395 0.0558548 -0.175842
-0.226709 0.240254 0.428051
-0.190789 0.153549 -0.658511
-0.245671 0.120163 -0.410597
-0.0878095 0.0361877 -0.139741
-0.216448 0.200188 -0.529216
-0.239454 0.125441 -0.451297
-0.202426 0.236425 -0.851761
-0.00789351 0.155213 -0.263613
-0.220761 0.220928 0.743954
-0.246268 0.184415 -0.654471
-0.229423 0.28452 0.695097
-0.145674 0.165073 -0.426999
-0.243062 0.173987 -0.444203
-0.191634 0.202498 -0.520692
-0.245494 0.117991 -0.930358
-0.220256 0.319316 0.749746
-0.245537 0.318045 -0.781825
0.0475333 -0.0095172 -0.0036775
-0.21933 0.0942283 -0.333296
0.132982 -0.290864 0.644608
-0.246841 0.0528669 -0.11201
-0.232549 0.260099 0.770952
0.118427 -0.10347 0.150671
-0.224599 0.21177 0.322139
0.172935 -0.305436 0.610075
-0.195614 0.0155424 0.159806
-0.245651 0.255466 0.933444
0.0738745 -0.0933449 0.141819
-0.148393 0.00769179 -0.00521713
-0.0454768 -0.16444 0.464092
-0.246081 0.135089 -0.514871
-0.246501 0.126307 -0.606441
-0.0870617 -0.0695408 0.153304
-0.231538 0.235196 0.89581
-0.197475 0.306238 0.545621
-0.229768 0.216556 0.609915
-0.222297 0.198696 -0.0493975
-0.0815211 -0.0992738 0.26617
-0.245133 0.0502804 -0.0451774
-0.245812 0.0529139 -0.105675
-0.207842 0.140428 -0.8246
-0.2456 0.174048 -0.499084
-0.240696 0.195778 -0.796254
-0.221377 0.0795116 -0.269881
-0.246713 0.0574649 0.0619673
-0.241124 0.198813 -0.745093
-0.0160618 -0.160432 0.356351
-0.246713 0.0783126 -0.271265
-0.246699 0.122929 -0.638773
0.0767318 -0.00682748 -0.0113733
0.213547 -0.286267 0.47894
-0.226138 0.1569 -0.950576
0.117788 -0.266199 0.530129
-0.246695 0.0456394 -0.0859696
-0.205125 0.176328 0.20819
-0.161825 0.33996 0.649534
-0.206518 0.18029 0.145363
-0.246692 0.292072 0.856449
-0.245353 0.255645 0.930363
-0.226616 0.179491 -0.83979
0.117286 -0.249191 0.478085
-0.214607 0.141843 -0.332674
-0.245369 0.183602 -0.605689
0.0785758 -0.224228 0.449946
0.128665 -0.0909467 0.122879
-0.155626 -0.0327983 0.224477
-0.183036 0.208226 -0.358693
-0.246353 0.165508 -0.45064
-0.131 0.148845 -0.382062
-0.23762 0.133951 -0.454098
0.121808 0.0778396 -0.0831697
-0.186718 0.0906059 -0.335762
-0.246647 0.0826845 -0.287156
-0.156091 -0.0891781 0.4013
0.158438 -0.13045 0.175109
-0.245483 0.0504235 -0.0252979
-0.0238701 -0.182003 0.513979
-0.241398 0.19583 -0.766186
-0.219803 0.204521 -0.294184
-0.245268 0.254216 0.945018
0.303058 -0.315765 0.555676
-0.24656 0.120335 -0.794106
0.228022 -0.163832 0.176103
-0.215796 0.16599 -0.139711
-0.245793 0.190246 -0.699403
-0.246069 0.300626 0.879751
0.227399 -0.3245 0.675032
-0.177579 0.23904 -0.14033
-0.245409 0.190734 -0.843555
0.0842305 -0.154104 0.252142
-0.0867582 0.144762 -0.315143
-0.245756 0.290072 0.885145
-0.0718529 -0.0344426 0.049221
-0.236811 0.0588927 -0.219427
0.112905 -0.229549 0.43097
-0.161708 0.177567 0.5256
-0.208724 0.208225 0.665975
-0.116587 0.00819089 -0.0218859
-0.246504 0.0447908 0.00482932
-0.188622 0.346939 0.740041
-0.192093 0.176089 0.423973
-0.066228 0.17116 -0.322111
0.24334 -0.175511 0.174697
-0.186671 0.0151645 0.146213
-0.246438 0.135732 -0.506533
-0.246435 0.0576319 -0.215107
-0.229467 0.280798 0.721414
-0.0127837 -0.125903 0.262143
-0.191798 -0.000561518 0.224924
-0.222005 0.0450347 -0.0760302
-0.246431 0.124025 -0.764394
-0.230494 0.300228 -0.755995
0.297467 -0.239824 0.25955
-0.246414 0.198686 -0.849034
-0.188124 0.271294 0.25241
-0.246393 0.122926 -0.794856
0.0891433 -0.163181 0.271545
-0.245882 0.275537 0.894659
-0.0207511 -0.0797247 0.110011
-0.0107931 -0.0348319 0.0443496
0.288277 -0.275631 0.384167
-0.142522 -0.0700173 0.299841
-0.246316 0.159672 -0.459568
-0.246257 0.224208 -0.799415
-0.136934 -0.0169226 0.0837784
-0.195613 0.107028 -0.414607
-0.0765892 0.00817002 -0.0704364
-0.245357 0.174458 -0.503967
-0.245301 0.28037 0.889587
-0.2118 0.141127 -0.853858
-0.246177 0.288472 -0.767525
-0.176181 0.19954 0.721525
-0.24617 0.198303 -0.775201
-0.225719 0.2032 0.411866
0.112941 -0.00670111 0.00443707
-0.246167 0.122964 -0.714748
-0.246167 0.136783 -0.519582
-0.156142 0.239044 -0.0429422
-0.246156 0.114554 -0.865054
-0.197445 0.134853 -0.690023
-0.245666 0.170105 -0.464592
-0.136757 -0.104074 0.414758
-0.0410414 -0.116758 0.25345
-0.246115 0.121055 -0.810987
-0.19122 0.171275 0.263147
-0.236112 0.0467733 0.117085
-0.237583 0.119977 -0.569326
-0.246108 0.117678 -0.90749
-0.246101 0.120926 -0.834718
-0.244452 0.246989 0.943453
0.11244 -0.226716 0.439402
-0.24609 0.117055 -0.811721
-0.125256 0.260138 0.199614
-0.225041 0.122973 -0.804672
-0.245309 0.206508 -0.96591
-0.163112 0.135605 -0.453353
-0.245083 0.124936 -0.594991
-0.207181 0.0443734 -0.0901027
-0.225483 0.225506 0.62507
-0.170885 0.0838966 -0.265112
-0.246055 0.063482 -0.204381
0.0790743 -0.0185973 0.0155349
-0.187578 0.30379 0.481685
-0.245502 0.290568 0.880296
-0.229166 0.155733 -0.324996
-0.198087 0.0662593 -0.20577
-0.207306 0.0703791 -0.229928
-0.24601 0.114839 -0.672166
0.0884468 -0.136315 0.229181
-0.220036 0.118537 -0.488099
-0.245836 0.26923 -0.780159
-0.244913 0.255008 0.904507
-0.245196 0.273395 0.8353
-0.184897 0.142163 -0.168856
-0.244956 0.274561 0.889449
-0.20143 0.0151331 0.210821
0.088439 -0.0880416 0.129615
-0.239823 0.242388 0.914808
-0.245965 0.304246 0.879881
-0.20618 0.0238342 0.145468
-0.233028 0.120797 -0.949691
-0.233774 0.191316 -0.599098
-0.245655 0.188917 -0.679098
-0.224171 0.193242 -0.973107
-0.129101 0.191128 0.339157
-0.217948 0.179264 -0.955184
-0.227765 0.285911 0.725243
-0.0116464 0.149629 -0.250342
0.135264 -0.282918 0.654991
0.238635 -0.238583 0.348811
-0.220743 0.205015 0.0390838
-0.189081 0.103967 -0.379756
-0.245878 0.0876512 -0.30072
-0.100383 -0.113653 0.350363
-0.245226 0.250772 0.939804
-0.192636 0.213311 -0.344162
-0.245497 0.155776 -0.471616
0.0873939 -0.0345165 0.0290455
-0.212032 0.244259 0.208374
-0.245352 0.295014 0.875025
-0.245774 0.13695 -0.524344
-0.245753 0.124474 -0.752402
-0.221185 0.289168 0.664885
-0.245179 0.25413 0.926136
-0.220967 0.215513 0.669617
0.262795 -0.195934 0.165254
-0.213236 0.199628 0.544211
0.183352 -0.30859 0.671672
-0.245164 0.249738 0.945639
-0.0348556 -0.0341896 0.0210337
-0.174598 -0.0468915 0.349629
-0.24256 0.118081 -0.946051
-0.129736 0.20047 -0.0410327
-0.0171893 -0.186728 0.460006
-0.186303 0.0255226 -0.0152937
-0.245687 0.125079 -0.587402
-0.0293568 -0.0490375 0.0682557
-0.217961 0.209562 -0.135774
-0.201772 0.200548 0.730301
-0.0576884 0.073658 -0.176022
-0.171031 0.215621 0.780621
-0.220238 0.179885 -0.106489
-0.245659 0.114092 -0.93304
-0.215775 0.21281 -0.17232
0.208091 -0.24061 0.359917
-0.245659 0.247076 0.985729
-0.229468 0.0366868 0.00311115
-0.245648 0.182509 -0.595067
0.0405075 0.132442 -0.173892
-0.158394 0.0374103 -0.1221
-0.245631 0.192689 -0.718769
0.018046 -0.16951 0.355133
-0.172427 0.0727329 -0.245608
-0.172282 -0.0213856 0.233714
0.156533 -0.0777283 0.0830689
-0.24521 0.26057 0.90396
-0.146655 0.0805525 -0.25446
-0.245389 0.310579 0.879194
-0.245579 0.11238 -0.692106
-0.245537 0.20255 -0.784216
-0.24553 0.187632 -0.640098
-0.244786 0.17291 -0.474199
0.22439 -0.217965 0.295016
-0.201108 0.152076 -0.175565
-0.245457 0.122105 -0.791165
-0.192949 0.261921 0.201588
-0.244946 0.159338 -0.455513
-0.221551 0.100497 -0.339548
-0.244782 0.275482 0.885475
-0.156185 0.0619117 -0.208854
-0.197557 0.301272 0.544166
-0.241675 0.0595355 -0.22429
-0.245311 0.268981 0.816117
-0.218224 0.271764 0.494485
-0.0620838 -0.0654489 0.116015
-0.245294 0.117445 -0.903427
-0.240727 0.179642 -0.48483
-0.245021 0.163832 -0.423988
-0.0919154 -0.135652 0.473364
0.0540734 0.0188171 -0.0445372
-0.22519 0.215016 0.31598
-0.22491 0.210372 0.453125
-0.135711 0.313817 0.460758
-0.0804533 -0.022465 0.0475054
-0.211177 0.181363 -0.714717
-0.024964 0.0802533 -0.178264
-0.245025 0.28544 0.885231
-0.244553 0.269652 0.889456
-0.157009 -0.0705286 0.390302
-0.245252 0.174356 -0.483654
0.113229 0.0589222 -0.0733459
0.133286 -0.214197 0.369656
0.277769 -0.234881 0.259349
-0.159969 0.143047 -0.0933153
-0.0924527 -0.112227 0.340482
-0.244629 0.250457 0.94925
-0.149295 0.138532 -0.396917
-0.245235 0.263124 -0.763688
-0.240944 0.0565232 -0.204324
-0.161485 -0.0400165 0.251356
-0.245033 0.279551 0.841959
0.1978 -0.196759 0.27973
-0.224526 0.192342 -0.741989
-0.0867572 -0.141377 0.495674
-0.244733 0.289709 0.86966
0.217782 -0.243976 0.375898
-0.220398 0.145165 -0.290239
-0.122145 -0.0957856 0.344429
-0.245102 0.122043 -0.616482
-0.213106 0.169355 -0.0601396
0.0583762 -0.254173 0.553692
-0.245095 0.157415 -0.451732
-0.0508096 -0.0677914 0.132301
-0.24505 0.269489 0.830182
-0.225879 0.11937 -0.396098
-0.00135645 -0.199858 0.535589
-0.22141 0.200064 -0.415586
-0.213751 0.208508 0.586226
-0.244986 0.165313 -0.421521
-0.220691 0.205325 -0.318854
-0.227305 0.254836 0.979344
-0.21284 0.0822602 -0.291935
-0.127185 0.151356 -0.386626
-0.244923 0.162971 -0.430321
-0.0962473 0.124521 -0.30071
-0.244896 0.270709 0.89958
-0.228302 0.0426657 -0.00940184
-0.228874 0.259364 0.722508
-0.0855916 -0.124737 0.383449
-0.241701 0.19339 -0.691435
-0.221491 0.285193 0.644374
-0.209424 0.0261343 0.130447
-0.245015 0.197743 -0.737919
0.163282 -0.0940579 0.110255
-0.24496 0.277923 -0.799137
-0.196465 0.039365 -0.0950682
-0.0165134 -0.0748583 0.119477
-0.226864 0.225529 0.563459
-0.244832 0.182982 -0.630382
-0.240059 0.164959 -0.413205
-0.244922 0.282539 0.90949
-0.158714 0.24277 -0.021145
-0.181691 -0.0494949 0.325879
-0.241763 0.205564 -0.965657
-0.18287 0.311807 0.555298
0.0492519 -0.240234 0.506486
-0.111422 -0.0893685 0.310481
-0.224874 0.161227 -0.865381
0.293135 -0.254933 0.282801
-0.222546 0.185078 -0.185461
0.0178826 -0.146076 0.281393
-0.207018 0.0588521 -0.20542
0.195853 -0.173202 0.214801
-0.244569 0.269821 0.868631
0.0757336 -0.253476 0.610308
-0.061376 0.152121 -0.29239
-0.239082 0.150034 -0.439037
-0.244769 0.126108 -0.454767
0.228208 -0.310943 0.555057
-0.24489 0.244885 0.966409
-0.244393 0.275195 0.875035
0.178897 -0.119384 0.127936
-0.126119 0.246119 0.130316
-0.22347 0.189731 -0.226467
-0.244574 0.29036 0.874399
0.17345 -0.138042 0.176563
-0.218982 0.202171 -0.559608
-0.24466 0.264588 0.900796
0.104073 -0.113043 0.173256
-0.241721 0.134159 -0.459516
0.13864 -0.258556 0.486043
-0.212328 0.0345596 0.0551085
-0.224443 0.189302 -0.180094
0.193874 -0.315236 0.620293
-0.244828 0.1131 -0.996313
0.118355 -0.239486 0.683851
-0.244824 0.196401 -0.771337
-0.244821 0.192968 -0.712912
-0.0450099 -0.0486289 0.0558181
0.0223102 -0.0689426 0.105435
-0.204673 0.180572 -0.683101
-0.2448 0.051107 0.0123142
-0.244769 0.173671 -0.463199
-0.24473 0.116756 -0.646689
-0.244675 0.0675896 -0.228818
0.179299 -0.303188 0.576239
-0.237035 0.122898 -0.763452
-0.244675 0.17307 -0.455109
-0.226249 0.0488706 -0.0900807
-0.00710747 -0.104438 0.180164
-0.197416 0.204579 -0.499254
0.148433 -0.283352 0.559549
