ply
format ascii 1.0
comment Created by Open3D
element vertex 1887
property double x
property double y
property double z
end_header
-8.27655 5.10741 -33.3223
-7.44442 0.498843 6.80745
-9.2993 10.4787 33.9627
-9.28561 4.48827 -24.7246
8.46914 -8.83018 13.1826
-9.29916 7.22598 -28.2255
-9.26661 9.87904 -29.4495
-9.26549 4.05976 -13.9562
-9.29864 4.72638 -24.9008
-5.48076 9.94909 6.05432
1.35912 -0.504762 0.0676831
-9.29864 5.92783 -17.8266
1.49993 -8.74895 18.7265
-8.1767 8.63437 3.87294
4.09894 -10.7973 22.3141
-6.73326 7.77633 -18.3346
-1.73582 -6.4247 18.0414
-9.2811 4.29015 -34.68
-9.24973 11.2004 33.1316
-2.37354 -1.51584 2.96999
-9.29824 1.993 -6.87415
-9.282 4.62252 -29.0934
-6.88743 6.06544 4.41138
-8.25188 7.92373 1.61815
-9.18993 6.99428 -31.9106
-8.30266 7.7193 -35.5581
3.16789 -1.43562 1.63281
-9.28785 6.08477 -17.7432
-2.4904 -0.650982 0.701826
-7.87986 7.8794 24.7896
-7.59123 5.78596 -4.52661
-9.29798 4.33738 -37.4757
4.87023 -11.2338 23.2364
-1.89658 -5.86921 15.5859
-9.28575 4.32264 -37.2538
-6.69024 6.85422 21.6852
-5.25853 -0.806475 3.99939
-9.29732 4.30068 -34.8829
-8.0669 2.21893 -7.21413
-9.29719 6.58848 -18.4953
-7.23947 0.0355189 8.90083
-5.06519 8.52795 14.4832
-9.29706 11.3197 33.1449
-9.27772 2.09851 -7.51566
-4.22076 7.08825 2.39759
-4.48794 -1.22882 2.93445
-5.66177 0.175533 0.457733
-7.79843 3.99732 -13.3546
-8.68291 2.86269 -10.6681
4.83063 2.90617 -3.05285
-8.43158 7.42785 0.26922
-6.44091 6.5374 -18.3022
0.170622 -0.276324 -0.935067
-9.29588 5.17983 -19.8322
10.0749 -11.6375 19.0226
-6.77298 -1.41529 10.652
-6.15298 7.5988 -10.4948
-9.27029 10.2949 31.532
-7.32668 0.919017 0.287374
-9.29509 4.70796 -28.458
-5.6473 -2.15474 10.3226
-7.84302 6.85198 6.4053
-8.23899 1.29137 5.9748
-8.65936 9.41585 23.6652
-5.27231 0.195485 -0.170425
-8.03259 6.20159 -37.0673
-9.2287 6.70258 -19.0836
-9.29088 4.35724 -14.9107
-8.05508 7.56565 -34.2038
-8.67408 8.66064 17.2004
10.0661 -10.5308 16.0041
-8.79335 9.27963 30.6443
-7.61127 6.56406 3.86741
-9.29417 11.0449 -28.9008
-6.75509 6.42115 -20.4633
-8.08047 2.15968 -7.63921
-8.84597 4.43367 -33.1143
-9.29259 9.69691 34.501
-1.08997 -1.1366 1.30834
-9.26878 4.57384 -27.886
-9.29351 10.0547 -30.0674
-3.4671 4.21648 -10.5712
-7.36904 6.39168 6.08885
-8.40225 11.9658 28.6692
-8.89136 9.61377 35.9119
-9.27713 10.564 31.8774
-9.29285 4.74335 -25.2196
-5.96184 8.03917 -7.92656
-4.99336 8.34246 19.3073
-8.09076 1.78273 -4.06592
-6.1636 6.82462 -10.9882
-4.33202 -3.63019 12.1543
-9.25023 6.6711 -18.4767
-8.99511 2.16569 -6.50686
-3.7598 3.19091 -8.19308
3.91148 -3.88208 5.27435
-9.29272 2.10232 2.24591
2.85243 -6.5531 11.3871
-9.29272 4.49248 -33.5326
-9.28568 4.74716 -22.2366
-7.95806 8.04581 28.0457
-7.79159 10.7517 16.2136
-9.28298 10.5734 33.4663
-8.77368 6.7126 -13.3826
-7.77041 1.01719 6.40481
-8.41264 2.07233 -5.8662
-9.29193 4.23516 -25.8849
-9.29193 4.68086 -29.5733
-4.72526 10.5267 11.1957
-1.12733 -5.40176 12.2777
-9.15836 4.32098 -36.2252
10.9823 -9.47498 10.4977
-5.22142 -0.227408 1.33614
7.38167 -4.83359 5.3818
-9.25463 3.54524 -12.2776
-2.87815 -5.51805 18.3521
-8.199 8.67055 2.09015
-8.41994 6.0386 -35.5529
-9.26194 4.32166 -35.255
-5.99821 -0.647857 6.09559
-9.29153 9.34514 37.2832
-9.25102 9.0944 32.9514
-6.77338 1.20475 -2.85552
-6.15719 6.8996 -11.3457
-9.08559 2.01925 3.41086
-8.09551 7.00883 3.11625
2.26939 3.23314 -4.51333
-9.29114 1.78686 -1.3678
-8.23926 7.98503 24.1693
-9.29088 4.67915 -16.1494
-8.78098 2.27689 -7.64649
-6.16173 0.0507788 2.48099
9.64186 -11.355 18.8246
-7.84697 1.10543 7.11476
-8.68521 9.09368 31.9513
10.3985 -10.3983 15.3935
7.83612 -4.81359 4.83675
-1.43845 -3.54097 6.12338
-8.27714 9.53313 36.4302
-9.29061 6.61493 -19.9218
-4.68948 6.12213 0.554423
5.7284 -8.29398 13.8026
-7.9631 7.88511 23.9635
-4.03363 2.17685 -6.47331
-8.72573 6.5625 -13.1084
-8.05258 6.92947 -27.7174
-6.64505 -0.635787 10.1827
-9.28443 6.526 -17.9731
4.37739 -5.03491 8.03781
-9.28134 11.747 33.2537
-8.22294 11.1388 -30.4053
-4.15978 -3.61108 12.2724
-9.28035 2.08371 1.90407
-9.28969 4.64929 -23.4192
-6.83955 10.6951 11.9439
-7.67477 2.86729 -8.44527
-8.27596 7.85927 16.8784
-8.29543 6.84909 -35.6919
-8.50802 5.0546 -34.6092
-7.96944 7.60932 21.7323
-8.27938 8.03989 22.5781
-9.26654 6.8312 -22.6571
7.40272 -5.91652 6.81837
4.6336 -10.4174 24.1318
-7.59702 4.13459 -14.291
-7.71838 8.28898 -9.95811
3.75543 -7.44469 14.065
-9.27 1.86873 2.48665
-9.28917 2.52881 -9.74276
-9.10269 1.74555 3.75855
-9.28851 10.1039 -29.8897
-4.62232 -2.47093 9.13302
-9.26917 3.5167 -12.0261
-1.42963 -2.01037 3.35515
-1.47397 -2.34043 4.21234
-9.28272 6.83225 -22.2462
10.2061 -9.81859 13.5747
-9.25148 7.42193 -29.8952
-3.50393 7.73259 5.20121
-9.28654 4.63639 -26.6895
-7.96504 1.12522 7.51072
-8.53248 9.66179 19.7088
-9.28627 2.56288 -9.85247
-9.13397 1.87967 -2.7413
-9.26518 6.38572 -16.6676
-1.57074 -6.13568 15.874
-9.25769 10.1492 -29.1143
-8.89622 4.67665 -36.9348
-4.73631 9.91121 8.05522
-2.23571 -3.98179 10.1149
9.01857 -7.77047 9.67724
-9.26583 9.86534 34.1494
-6.62012 3.66397 -14.5408
-9.28535 1.67149 -2.11962
-8.37081 6.79489 -31.3795
-9.28469 4.44551 -35.7287
-8.53218 8.04484 16.4599
0.942105 -8.43704 18.1017
-9.28469 9.8749 34.3714
-9.27891 1.99221 -4.64199
-9.07347 10.7695 31.3446
-8.06495 1.18538 7.02714
10.8306 -11.7198 20.0829
-9.28312 5.39729 -17.8829
-8.3819 6.40993 -7.40478
-9.26098 9.71007 35.2336
-8.29227 7.73943 20.4118
-8.20111 1.35445 0.930594
-8.72468 9.41532 29.387
-8.06646 7.67806 -20.2345
-9.28298 10.2081 -30.5375
4.9904 -9.35619 17.3575
2.07246 -6.40135 11.6726
-7.82395 8.09817 -11.2276
9.62344 -11.5321 19.3748
-9.28285 6.89579 -24.0465
-8.51657 6.86606 -9.66632
-6.06721 3.63884 -14.1722
-9.15827 9.81741 34.5182
-3.86031 9.74374 9.81221
-9.28272 1.88724 -1.39793
-9.28193 6.8112 -21.2798
-4.03909 0.244817 -0.672161
6.83573 -8.38337 13.6784
-8.71455 7.31965 -15.6534
-8.69324 4.58621 -34.8437
-8.53094 7.33432 -19.3774
-6.72865 1.12174 -2.2467
-9.28088 6.65387 -18.767
-4.62497 -0.330939 1.04094
-8.55814 9.88759 21.707
-8.79111 8.37719 13.9345
-8.1548 8.84354 6.1272
-9.27877 2.71338 -9.49518
-9.27877 4.4663 -24.6048
-6.65301 5.52423 -14.1791
-8.38087 7.81652 18.9792
-8.47526 8.64726 10.9816
-8.02167 1.04544 3.87688
-9.27864 4.58733 -27.7894
-9.26303 10.4546 33.3934
-8.2753 8.80394 9.22747
9.62495 -9.45446 13.9166
-8.21176 8.67193 5.92981
-4.89601 8.534 -15.9413
-9.24279 10.1904 30.8904
-9.27825 7.1827 -28.9595
-3.82702 -2.23782 6.39162
10.897 -8.20604 7.98194
-9.27812 4.41644 -31.2581
6.73786 -9.06908 15.2409
-7.92403 1.27068 0.570604
-1.7647 -4.84372 12.0642
-9.24641 3.35285 -11.5739
-3.43763 -5.25464 18.5718
-1.9142 -5.09186 13.3327
-9.27785 3.7675 -13.5654
2.85736 -0.244422 -0.0585403
-9.27746 2.23282 -8.38002
-9.25698 4.61333 -23.2896
-9.27706 6.39576 -19.0173
-8.65851 7.56078 -26.79
-4.74848 8.0662 14.9612
-8.69482 9.86582 23.1072
-4.75836 10.2177 9.29877
-9.2571 1.89467 -0.484207
-9.27654 4.31265 -37.8199
-3.14769 5.51638 -11.7109
-8.49591 10.1392 -30.5863
-8.97943 6.68899 -17.2753
-9.27516 4.41756 -25.1747
-9.27575 10.4247 31.8432
-8.09113 5.24561 -32.2032
-8.9253 7.59959 -26.4777
-8.957 6.74013 -31.9959
-7.04947 3.60339 -12.9473
-9.27549 9.95212 -28.8849
-9.27535 6.14121 -17.9731
-8.22702 2.09632 -6.29974
10.0737 -9.23247 12.6765
1.52065 1.43515 -2.89254
-9.25059 9.39715 35.8413
-9.22523 9.1661 33.3237
-9.24668 4.70454 -25.8319
-7.7632 1.11863 5.81382
-5.30777 7.31004 20.1919
-3.59405 -5.29095 19.1882
-0.314342 -0.439842 -0.468717
-9.12683 7.5104 -28.1843
-9.27496 4.51879 -29.4042
-7.84039 5.27205 -30.4492
-8.9449 7.61524 -26.9082
-9.27496 10.5879 31.8359
-8.57899 4.12321 -13.5324
-4.94699 7.31096 -2.51533
-7.93735 3.88274 -12.2962
-7.47797 9.58457 5.55831
8.10665 -11.8296 22.1795
-9.24312 6.88336 -20.3929
-2.35711 -5.69648 15.4579
-2.25578 -5.03098 12.7952
-9.27364 4.47077 -33.0418
-9.27351 1.93012 3.2653
-9.27351 4.83583 -24.6575
-8.37358 1.45603 0.14482
-9.27338 8.69567 -30.0906
-9.27312 4.42618 -37.2112
-4.56016 7.83151 1.33163
-8.84663 8.94904 20.3739
-9.27299 4.36421 -32.9459
-8.78809 8.46506 14.9819
-7.08647 5.15918 -6.29901
-7.94559 1.28418 0.257928
-8.37331 7.46983 -33.1551
-7.70805 8.288 -14.2433
6.65972 -1.65584 1.19659
2.09897 -8.93582 23.0227
-9.25884 10.31 32.9818
-7.00109 -0.141681 7.54374
-8.39957 2.6619 -9.79367
-9.27272 1.65939 -0.484043
-9.27272 1.69925 -2.82132
10.4943 -10.0092 14.8391
-8.40817 10.1473 -30.7787
-9.2722 4.67257 -22.6816
-7.64767 7.46389 24.5726
-1.05863 1.94933 -4.77298
-5.18575 7.90229 -3.73652
-9.27193 7.31241 -28.3457
5.85776 -9.76361 18.2823
-8.68443 1.74253 3.35883
-4.72684 -0.58001 1.92315
-0.170688 -4.00455 7.01991
-6.79693 10.1489 7.54769
-9.24571 11.5196 33.1102
-3.14449 -5.14032 15.551
8.6964 -8.08909 10.2274
8.28793 -12.2974 25.8703
-6.09536 7.79231 -17.6235
-9.12999 3.6341 -12.7133
-9.27035 6.43115 -16.8688
-0.846862 -6.90381 21.711
-9.26957 11.8638 -29.3985
-7.95458 7.57065 -34.0066
-3.18676 1.34071 -4.92397
0.181212 -6.77006 15.123
-6.39754 5.02105 -3.49907
12.4005 -11.6469 18.9828
-9.25049 2.27058 -7.35405
-9.26917 4.46617 -29.7324
8.73468 -10.7105 16.7033
-8.2243 1.44342 1.07348
-9.25067 9.44565 35.9881
-9.0679 9.17873 36.5738
-5.98822 -2.90432 14.3234
1.08372 -4.52971 6.86843
-8.85136 4.59607 -29.883
-5.98433 3.18091 -10.0173
-8.37936 8.37087 3.18795
-9.26864 4.62298 -22.2263
-7.95254 7.75212 21.9708
-9.25174 6.54764 -18.1688
-4.88847 9.11725 3.7252
-7.92728 8.31411 31.3236
-9.26851 5.09117 -17.896
-8.06048 8.28471 -3.84492
-3.7331 -1.13182 2.80663
-0.203576 -4.87411 8.93135
-1.0455 -1.72464 2.26525
-7.24118 7.50171 29.4708
-8.4596 7.26913 1.18363
-5.53561 -3.25274 14.6354
-7.96107 8.38605 29.6476
-9.22273 10.0054 33.8633
-9.21339 4.5993 -23.1861
-4.45387 1.74358 -5.2562
10.0523 -7.98135 8.49167
-9.26838 4.36869 -32.5303
4.48202 -10.1426 20.2142
3.43408 -7.76863 14.4915
-9.24241 6.28763 -15.9207
-6.30927 -0.979136 8.78605
-5.82496 -2.79297 12.598
-8.45658 11.0879 25.4108
-7.06621 3.38613 -10.7293
-9.26825 7.26834 -26.6658
-7.64613 1.64158 -4.04216
-9.26253 4.1661 -14.4163
-4.46755 0.863108 -2.73107
-3.7744 1.60032 -5.18805
-4.32843 -1.37366 4.17386
-9.25862 10.4509 33.5778
-9.26786 2.8123 -10.7068
-9.26786 6.15121 -16.3064
-8.22663 4.71796 -29.5627
-9.2672 7.18625 -32.2566
-6.00345 -3.16017 15.2783
-6.57 10.5367 9.02843
-9.2672 7.47922 -27.9103
-7.52217 0.845086 3.68995
-8.36831 7.6038 -9.04672
-4.89733 12.309 20.3734
-8.97509 6.60559 -15.57
-8.5905 6.27842 -11.4886
9.62319 -12.3372 24.1581
-0.414584 -4.73519 9.99928
-8.13665 5.36308 -13.5306
-7.93169 12.2485 28.3227
10.634 -12.1549 22.1754
0.691236 -5.8789 11.5855
-9.25332 10.166 33.7486
-6.99399 5.96809 -22.5068
-9.22813 6.83462 -19.9861
-3.49315 3.23866 -8.12875
10.8721 -12.5728 24.3035
-8.34739 8.05739 0.665452
7.07322 -7.95001 12.2836
-5.07957 -2.70469 11.5315
6.31615 -9.04477 15.701
-9.26693 1.82317 2.00017
-9.13926 1.84106 -0.204891
-8.5269 11.2235 27.4248
-8.25267 8.42718 33.5829
-9.2668 10.5475 -29.6412
-9.26667 4.79005 -16.4917
-8.68535 9.40677 26.9347
-9.24516 2.23295 -6.91552
10.7683 -10.1323 13.4793
-2.15553 4.28568 -9.14249
5.12879 -3.88853 5.22121
-9.26601 4.32804 -33.61
5.71724 -10.8291 21.4246
-9.24102 10.6251 33.1295
-2.22797 -5.46188 15.1443
4.23725 -8.00876 15.1372
-3.18229 3.1842 -7.81974
-2.83809 -2.08529 3.86458
-7.91176 8.01286 -13.974
9.02684 -12.3033 24.1171
-9.24168 9.98494 35.204
-8.33095 6.84856 -4.84457
-4.61423 6.67018 0.294478
-9.26444 1.94735 0.922504
-9.23569 4.61508 -28.6615
-9.26049 6.92914 -23.8899
-7.91222 7.60018 -22.7985
-9.26365 4.65692 -28.7668
-8.97114 11.2145 -29.4724
-3.63667 1.55349 -5.03256
-7.80106 9.02771 0.689132
-9.22425 10.1787 34.7505
-7.61386 11.9804 25.7518
2.42015 -6.61769 11.8565
-9.24108 10.7288 34.3822
-8.53768 8.95739 14.8252
-5.87377 -3.06745 14.9803
-9.26351 7.72075 -36.8956
-9.24424 10.279 32.8621
-9.25227 3.19624 -11.2808
-8.77625 6.24533 -33.3
-3.92293 -2.03286 5.61573
-8.36259 10.2996 20.9512
-7.81717 1.26447 -0.149179
-9.24964 10.346 33.0932
-5.92987 6.84343 -9.33837
-9.26128 4.53392 -32.1812
-9.26036 4.61061 -27.6136
-9.26009 4.27779 -37.6835
-6.90059 3.37442 -10.6641
-9.25983 4.54273 -23.6842
-7.38825 6.60124 18.7542
-5.86699 6.84034 -17.5781
-3.76618 9.97672 10.7233
-9.25957 6.17686 -16.2456
-8.98299 7.00598 -18.7868
5.40321 -1.82159 2.00392
-8.11099 6.34959 -30.1499
-1.7714 1.93832 -4.9361
-8.83663 4.77768 -37.0653
-9.2593 10.0724 -29.3047
-9.23385 6.43845 -17.4348
-8.27609 10.4917 21.932
-9.25865 10.7498 33.3638
-8.84468 1.89629 -3.61662
-4.97264 3.57017 -11.9566
-8.84917 6.58563 -33.3284
-8.86399 1.72319 -1.45581
-9.25773 5.23614 -19.0818
8.63878 -8.96535 12.6129
-8.06311 8.55794 31.6146
-4.87746 7.92182 -0.624343
-9.25773 10.5813 33.0335
0.155954 -1.63466 1.75614
-1.83315 -1.72771 3.08858
-9.25759 7.3278 -29.821
-8.52275 1.68793 -2.13975
-5.17306 8.4794 14.5774
-8.12389 7.00313 -27.7152
-9.25759 9.83412 -29.0233
-6.69537 10.8098 13.1326
-9.12594 10.4672 -30.0003
-9.23438 9.5724 35.2266
-4.14788 3.10093 -8.43566
-7.70805 7.22796 16.1083
-7.5273 8.88234 -1.18653
-9.24191 10.9076 32.9953
3.76819 -4.373 6.8578
-8.34094 11.3359 26.6778
-9.24249 10.9124 33.1108
7.22131 -6.97807 9.82405
-0.136748 -3.26274 5.06453
-8.63427 9.25496 26.8464
-8.96693 1.74792 -3.22676
-5.09307 3.27379 -10.0831
-9.25641 2.28544 3.43579
-8.38917 8.06824 19.2944
-9.25562 10.7484 33.2149
3.46033 -10.1253 20.815
-9.23076 6.8381 -21.023
-9.01633 4.5672 -37.7162
-6.2994 -2.87975 14.4099
-9.2547 2.04049 -5.02756
-9.24174 9.41927 35.5275
-4.28338 1.88237 -5.97078
-7.65609 9.38619 4.33942
-7.90604 10.7121 17.8947
-9.25444 7.20349 -25.119
-4.72131 7.76297 14.913
-9.25417 6.38958 -16.9764
-9.25378 9.27226 37.1345
-8.45855 4.60232 -32.6866
-5.94855 5.20312 -16.5846
-9.23105 10.3066 33.2545
-9.25365 6.19817 -15.6741
-8.36002 8.08488 0.347756
-9.25299 10.1262 31.2021
-9.23484 9.56319 34.1595
-3.45715 -3.80924 10.9465
-5.39156 2.82713 -8.98769
-8.63569 6.25546 -33.0821
10.0725 -12.1673 21.6959
-9.24306 7.2982 -26.8945
-0.546091 -7.20287 22.5019
-9.25141 6.31512 -16.4062
-9.25128 6.17541 -16.0391
-9.25115 4.63692 -27.1969
5.82601 -10.6049 20.8292
3.61681 2.32889 -2.74765
-8.55741 8.95838 26.5185
-3.1623 -4.88529 14.3953
5.69301 0.493054 -0.833838
-9.24372 7.05187 -31.8242
9.63618 -12.3202 23.9956
-7.75317 4.26674 -16.3123
-5.576 10.5378 10.2794
-9.2329 10.1497 33.5761
3.60549 2.43107 -2.84407
-8.6762 8.82749 31.027
-4.45189 -2.54499 8.47065
-9.24207 10.1745 -28.935
-9.23352 9.27687 35.5481
-7.92985 2.2144 -6.89414
-9.23595 6.73099 -19.225
-8.66101 1.77272 3.73204
-8.88294 11.3637 31.185
-7.85289 11.8624 25.1444
-9.24865 7.26584 -31.547
-4.97238 8.77796 1.43398
-9.23602 10.7577 33.1455
-9.23648 6.09957 -17.2917
7.05312 -9.08865 14.9796
-8.22959 10.409 17.6887
-3.38126 2.86065 -7.54473
-9.2476 7.23572 -29.0926
-0.270404 -6.26276 13.5451
-6.90894 -1.72181 12.6083
-9.24707 7.34069 -29.5421
-8.83518 9.11993 19.1788
-6.60438 3.01787 -10.8552
-9.22383 9.71465 34.0315
-8.35555 10.7117 -30.5619
-9.24641 1.9021 2.92406
-5.97085 10.643 10.5045
-7.27656 0.482662 2.60386
4.51201 -0.312776 0.249066
-9.24523 2.08325 2.76948
-9.24497 1.94209 0.785427
-7.10476 11.5903 20.0073
-9.24483 11.007 32.7449
-8.34608 8.51795 8.13007
-9.23251 6.82979 -20.8224
-6.00341 2.33333 -6.8189
-7.14416 0.265734 6.71484
-6.86602 9.68286 3.15824
-5.19924 12.2593 18.9629
-8.21752 7.45084 4.35303
-8.60865 2.5913 -8.75744
-9.2447 7.38279 -30.5397
-9.23383 6.29473 -32.1453
-5.59981 4.54944 -14.6928
7.51527 -11.4006 21.4273
0.300573 -7.56872 22.4827
-9.24444 6.9367 -23.6913
-7.62254 1.60848 -1.95123
-8.61731 8.69162 22.3329
-9.23983 11.2005 32.8867
-9.22405 10.9756 32.5094
-9.23017 10.422 33.2769
-8.86334 8.97167 24.9935
8.08692 -11.7508 21.1996
0.506144 -7.39713 15.8112
-8.29951 7.35293 -4.11657
-9.24352 2.11429 2.34115
-9.2351 11.058 32.5464
-8.785 6.40096 -12.1856
-9.24326 12.1711 -29.6383
-8.97077 7.01467 -19.5208
-6.40214 4.31817 -16.8851
-4.64337 7.78165 18.7437
-8.49539 1.7991 4.97652
-9.23983 10.4682 33.122
-1.78761 2.33966 -5.71319
-8.68995 7.20309 -19.0663
-8.07682 5.51743 -9.45344
-9.24141 4.43538 -24.9419
-5.79641 4.30666 -14.3964
-4.87233 6.70359 -0.909875
-9.22668 1.93861 0.575274
-9.24036 3.86498 -12.7987
-8.33095 11.2524 25.29
-7.3007 0.932238 0.188118
-6.73826 9.0335 -5.5318
-9.22592 10.152 33.1348
-9.23839 1.97748 -4.23996
-4.00475 0.5512 -1.95512
-3.29201 -4.17518 12.6811
-8.93898 8.94378 35.5189
-6.07984 8.51571 26.6197
-9.23602 10.1857 32.7992
-8.12546 8.17929 28.0306
-9.23589 9.83662 -30.5685
-3.14848 6.70333 -13.4388
-3.55925 9.97475 11.6956
-9.21958 10.4194 32.6883
-4.01389 6.05024 -13.6757
-3.87991 1.47864 -4.72144
-3.23932 -2.45074 5.67631
9.16682 -10.1469 15.2718
-9.23563 11.598 33.1506
-8.54202 11.8136 -29.8788
-9.23444 7.28176 -30.1065
-8.83564 1.62104 0.555015
-8.38252 8.00516 -32.8007
-9.23405 4.28436 -24.9
-6.33841 -2.31425 13.7684
6.3336 -6.08675 8.05337
-8.64051 9.11175 23.0795
-5.64033 12.5657 23.0728
-7.92158 1.18451 1.61548
9.0404 -12.4091 22.685
-0.840942 -6.59664 16.1736
-9.23352 10.0029 34.9179
-9.23115 4.30831 -25.5474
-8.99262 1.92202 -3.76735
-8.84012 7.46389 -27.7869
-9.23273 2.30188 -7.55848
-8.13362 12.6059 29.8273
-9.2326 4.28699 -24.6095
-8.25054 7.89321 17.2344
-8.952 1.94959 -5.07689
2.27278 -6.87915 13.7837
-8.03035 7.3749 20.3582
-5.75609 4.19412 -14.098
-5.70045 2.45698 -7.21671
-9.23247 4.47893 -35.2189
-7.94169 7.19954 18.3661
-9.2322 1.7007 -3.56603
-8.23084 6.95762 -27.8196
-5.55789 12.6747 22.9815
-0.227913 -4.17228 6.6442
-9.1415 3.27258 -11.6877
-0.274482 5.52746 -9.01935
-8.18519 10.8859 23.6284
-5.17069 8.72554 0.472598
-9.2322 4.6923 -22.5649
-0.794767 -4.89292 10.8395
-3.57863 9.97893 11.2623
-8.7331 6.78147 -14.2214
-9.23043 2.04911 -7.16119
-9.23181 5.15418 -17.5824
-8.22814 7.87854 -12.3735
-9.23168 7.69009 -31.9743
-8.31792 8.44928 2.71397
-7.80316 7.31517 16.2643
-9.23063 6.38761 -16.3762
-9.23063 10.7735 33.0222
-2.54177 2.83651 -6.77838
-8.64891 7.43646 -21.2051
-7.27847 2.96596 -9.58562
-2.09818 -0.445827 -0.874356
2.09913 -6.45822 12.5588
-9.22997 3.74882 -12.5783
-4.60972 10.1365 9.55053
-8.38166 7.44107 -10.1269
-4.36104 -2.89733 10.4198
-9.22892 4.52984 -15.6862
-8.61365 8.2163 17.1911
-9.12416 2.12155 -6.1933
-0.276324 -7.54868 20.8795
-9.22878 6.95393 -23.5325
-9.22865 6.6782 -18.2031
-9.22826 7.2615 -26.5216
-8.66995 6.14884 -10.7895
0.153586 -5.83325 12.1239
-9.22786 4.24174 -25.1682
-8.96871 1.72464 0.77885
-3.84097 0.469507 -1.66103
-9.22707 6.2475 -16.2052
-7.47271 6.2012 -25.9236
-6.28125 -3.01279 15.0768
4.05847 -0.591586 0.556616
-9.22655 4.6852 -22.8095
6.93308 -11.8718 24.832
4.99217 -4.02126 5.06584
-9.22655 4.70993 -25.4238
-6.23639 0.299148 0.940526
-5.84811 2.79547 -11.1388
-5.11425 0.295596 -0.898956
-9.22629 1.82041 -4.8993
-9.22602 6.14779 -15.9833
-5.79372 7.46084 -17.1403
-6.79982 -0.533046 8.93582
-9.01857 6.54534 -16.0352
-9.22589 10.7814 32.7734
-5.38591 -0.48139 2.78602
-7.16843 6.97959 -21.1033
-8.82821 9.53655 26.8711
-7.66517 6.68439 9.18879
-9.22563 5.33638 -17.6821
-9.22563 10.2963 32.6766
-9.22563 10.4014 31.4562
-8.94299 4.56884 -36.1712
10.2274 -9.66044 13.9284
-9.22536 10.9908 31.9887
-2.25775 -4.43552 11.8181
-8.84406 3.89119 -13.9639
10.7512 -9.99145 12.9667
-7.34668 10.3478 11.8085
-9.22523 5.02026 -20.1754
-9.13086 2.173 -6.49288
9.31377 -12.5923 26.3164
-9.2251 11.0758 -28.7502
-9.22497 6.8754 -21.2076
-7.84 9.96093 12.5482
-9.22458 4.55838 -31.3139
-8.55366 4.62534 -31.308
-9.22431 10.0925 34.9063
-9.22352 9.23556 37.3937
-7.75512 10.744 16.0201
-9.21819 9.92285 33.031
7.06424 -12.159 24.7894
-9.22286 4.67441 -25.6488
-8.19229 8.03752 -33.0598
-9.22273 11.3541 32.7246
-8.72258 9.6214 19.6737
-9.22181 10.1926 32.9693
-8.41188 2.83375 -9.70641
-7.91275 7.30254 -34.5521
-9.22142 4.40828 -31.0104
-5.8266 -0.930068 5.53864
-9.22115 9.84819 33.6016
-5.96822 -2.17754 11.6572
0.396956 3.51295 -5.93342
-8.79059 6.89342 -30.5306
-9.21651 11.2319 32.6798
-8.65456 7.14995 -11.3933
-8.71837 9.94646 37.2775
2.34431 -6.74227 11.8827
-8.05877 3.755 -12.7523
2.42824 -6.84619 13.6255
0.0146441 -7.67127 18.297
-6.85135 0.108047 5.68707
-9.22076 11.6462 32.9973
-8.45974 4.55168 -19.8383
-8.92217 7.05608 -18.4713
-8.61668 10.8469 26.9895
-9.22037 2.11271 -6.71168
-8.05304 8.04147 -9.80801
-7.02234 8.64391 -7.47685
-2.7068 -4.34238 12.2925
-8.86669 1.72345 0.427805
-8.39545 8.97842 10.9375
-7.58472 -0.192065 9.71816
7.49099 -11.0466 20.1877
-8.49144 7.1802 -11.9036
-5.25594 2.16231 -6.18048
-9.21971 1.83369 2.58992
-3.60698 8.4983 6.39192
-9.21879 9.43973 -30.5383
1.69655 -5.64605 10.2842
-8.74994 7.42423 -37.371
-8.10396 8.18719 26.8268
-9.218 6.81436 -20.3104
-0.748768 4.90156 -8.8996
-9.21721 10.2093 32.3602
-1.821 5.06972 -9.87247
-8.64049 10.1775 23.72
-9.21721 10.2701 -30.1035
-8.54943 8.9276 33.6125
11.2725 -10.9667 17.3273
-4.63164 -4.63074 17.3809
-0.13006 0.456132 -1.95542
-9.17827 6.60269 -16.6848
-6.30762 8.34996 -8.85623
-9.21168 6.8039 -19.4278
-9.21668 4.53497 -22.4948
-2.36549 -4.51024 11.248
-9.21668 10.3127 34.7361
-8.26221 8.37353 26.8438
-7.64267 6.5919 6.52501
-9.21642 10.1383 -30.0267
-9.21602 10.0407 33.668
-8.99739 10.2588 -30.1991
-7.74147 8.04121 32.6235
-8.40383 3.17289 -11.5087
-9.21589 9.09704 31.8306
-8.45132 5.92073 -32.6403
5.32842 -10.0189 19.5366
-9.21471 11.8391 33.046
4.23575 -7.17428 12.9309
-9.21445 6.65978 -17.4229
-4.52688 7.35194 18.2479
-8.72757 4.64593 -35.134
-9.213 10.3135 32.3727
-8.54741 10.6042 24.1365
-9.21405 10.735 32.5559
10.205 -11.1038 18.1281
-9.21366 1.96643 1.50685
-2.81553 -1.28184 1.83942
6.24875 -11.3415 25.2663
-7.19176 9.66016 3.85084
-9.11675 1.89601 0.889133
-9.21352 9.78689 35.6318
-8.11314 8.67348 2.9726
-1.63604 -2.96964 5.65651
-8.81453 5.241 -36.2934
-7.43061 8.9647 -1.26743
-7.25341 6.45207 13.6886
-9.21287 8.23669 -35.3718
-8.08356 8.78348 2.36542
-3.42632 6.66071 -13.2661
-9.21274 9.65692 37.277
-8.89017 7.34832 -24.456
-8.62713 7.19862 -16.8349
-9.2126 5.24469 -18.831
-9.21247 7.3578 -27.8522
-6.21718 5.35072 -3.92293
-8.69192 11.1962 -28.571
-5.3963 10.9906 12.9969
-7.89235 7.18823 -24.7889
10.1528 -9.56339 12.5619
-8.48723 7.34872 -7.31169
-9.21234 9.62587 37.2553
-7.90573 4.78132 -27.7804
-9.21129 4.34448 -24.1316
-7.35668 6.88013 19.5882
-9.21103 9.58772 34.0679
-9.21076 9.92634 -30.4083
-2.56163 2.85822 -7.10765
-7.62267 7.89505 29.8014
-8.0755 10.3082 -31.0095
7.08323 -4.35878 4.77748
-6.69287 -1.24947 10.014
-8.54972 10.419 24.0084
-9.21037 4.69835 -28.0173
-2.28945 3.89754 -8.48526
-8.59541 10.1277 25.6326
-9.20958 9.9312 33.8405
-9.20866 2.12153 4.52227
-4.67106 -1.29473 3.47263
-8.81742 11.0548 28.4843
-8.11836 8.07107 -9.57595
-9.20813 9.29528 35.7423
-5.96973 7.98385 -10.4233
6.76411 -11.8789 25.32
-7.57308 7.95701 -15.1602
-8.8415 1.75042 1.63738
-6.59375 -2.3376 13.6316
9.91759 -9.35761 13.3268
-8.97923 7.04692 -19.0737
0.512984 -7.18577 15.1372
-9.20774 6.14884 -15.3129
-8.5805 8.80052 25.5184
-5.03986 8.18433 -1.56803
-0.58654 0.818888 -2.58204
-9.2076 4.45972 -30.1173
-9.20655 7.51605 -28.4286
-9.20589 10.198 32.4914
-9.20563 7.25361 -26.0585
-8.78296 6.34209 -31.8919
-8.49596 7.61853 -33.1585
-9.15334 2.19303 3.8511
-8.98265 7.45343 -26.5195
-6.41674 2.68615 -9.04001
-9.15794 5.02108 -17.3006
1.6538 -5.92533 11.5838
-9.15444 6.99317 -31.7171
-2.08397 -5.78418 16.1414
-1.79061 -4.5768 11.5057
-7.80119 3.52623 -12.4997
-7.47955 10.1619 11.2955
0.794044 -4.05849 6.10174
-8.31463 5.68144 -10.277
-9.20004 9.56378 35.1985
0.921385 -6.34321 13.081
-8.87682 3.08547 -10.5703
-9.13255 1.79512 -0.615923
-8.07087 10.931 21.9786
-9.20511 8.39889 -34.9734
-8.34344 8.35374 23.3756
3.74954 -6.82301 12.4304
-0.40235 -7.49264 17.7398
-9.20511 11.2362 33.0227
-7.31011 0.756025 2.2392
-9.20497 9.46854 37.5457
5.17082 -10.0189 19.6214
-8.13954 11.9192 28.1086
-9.16187 4.81408 -16.6934
-5.67749 5.15622 -14.8856
-8.20755 10.609 20.8232
-5.97036 1.55338 -4.97094
-7.64859 6.22777 -0.11662
4.81357 -10.5571 24.5435
-9.18254 10.6388 -29.7336
-9.16307 6.53294 -17.1371
-6.41771 7.73655 27.7083
-9.20458 7.56538 -29.0059
-6.57237 3.97969 -15.9672
-2.53914 -2.6993 5.72544
-8.65377 8.86011 13.1582
-1.17048 3.26076 -7.225
-9.20458 7.64958 -31.9808
-4.36296 11.0256 14.54
-8.13125 8.69041 3.36383
-8.79131 4.58147 -34.7898
-3.12217 2.07831 -6.1816
-8.89287 6.89631 -33.154
-9.20458 10.3401 -29.5264
-9.18485 10.1318 32.9272
-7.43423 1.26046 -1.78265
-8.24204 10.1558 15.2673
-9.12134 6.43523 -16.5449
11.5482 -12.3241 22.4405
-7.71108 8.44875 -4.81932
-8.24886 4.78248 -30.0011
-9.18787 9.7141 33.5732
-5.83006 2.94307 -9.03142
-0.0207193 -3.57662 4.87417
-9.20392 10.5582 30.6431
-8.52992 7.28597 -20.4235
8.69117 -9.07944 12.8704
-9.12792 6.69596 -18.4707
-9.13575 2.52756 -8.71842
-1.88717 4.05086 -8.66785
-7.68207 7.66556 26.0662
-1.92247 -6.32161 18.7372
-9.16246 10.6202 32.5313
-8.25307 4.44051 -17.8743
-8.65831 10.1585 27.0859
-3.88109 0.480557 -2.61636
-9.15347 7.02879 -31.4832
-8.64951 9.70625 37.0504
-9.116 6.40681 -16.0901
-8.82639 9.2422 36.4381
-9.12425 3.52873 -12.3393
-4.61094 -1.3976 3.77809
-9.20313 7.3453 -27.416
-7.95287 2.95892 -10.4792
-5.92672 -1.11924 7.594
-0.000591981 -6.85159 14.9834
-9.18643 7.90933 -36.3343
-4.75722 8.54794 2.17895
-0.227956 -7.69873 18.2752
-9.13115 9.26495 36.562
3.92184 -8.79151 17.3553
-9.17237 10.3169 32.5663
-7.4731 0.547648 4.68921
-6.56342 1.59545 -4.31245
0.794592 -7.52039 23.4873
-8.6871 7.01396 -13.6621
-1.90776 0.42057 -2.54302
-9.14398 10.5942 32.3606
-9.18912 10.7975 32.6661
-6.32058 10.9021 10.8099
-8.39918 9.84705 17.2128
-8.14033 1.43522 6.72878
-1.74575 -3.99995 7.91972
-9.1392 1.96593 -5.0192
-9.20221 9.72625 34.916
2.89719 -9.36182 23.0997
-9.16323 9.53352 -30.4991
12.1554 -11.8796 19.4784
-8.27477 4.85017 -32.1925
-9.17589 10.1595 32.5547
-8.6251 11.6861 -28.9058
-8.7327 5.48885 -15.8325
-8.09817 10.6417 18.9237
-7.2004 -0.230346 9.42624
-8.97542 4.76203 -24.7101
-9.16928 4.11918 -14.1285
-5.45063 8.76395 13.634
-8.95279 12.2148 31.9199
-4.72736 10.9509 13.457
-9.13996 3.38819 -12.0306
7.48139 -7.44199 10.5802
-9.1391 2.03128 -5.27338
-3.85741 -3.67186 11.2319
5.84509 -11.3434 22.9112
-9.17524 4.56384 -22.6693
-8.6828 4.77952 -35.4346
-9.20169 6.6294 -18.0288
-8.46973 8.36758 10.8949
-2.11127 1.63686 -4.50211
-1.75812 3.38764 -7.55078
8.22886 -11.6441 20.1656
-7.77869 0.817854 3.42073
-8.83334 11.6708 32.8795
-7.6999 2.54078 -8.952
-9.20169 11.2518 33.7332
-5.34052 7.64287 -5.01783
-8.28385 6.67662 -36.0895
-8.88412 4.3504 -34.4639
-6.46121 6.68504 -14.0387
0.798977 -8.27089 21.6153
-9.13532 4.45594 -15.3279
-8.63027 9.6884 23.9511
7.02648 -9.58312 26.4202
-9.17476 10.9094 32.6546
-8.11635 5.92783 -8.87432
-1.63452 -4.38993 10.3218
-9.2009 4.12755 -36.6182
-9.1135 2.08313 -5.58638
-8.1175 9.36685 9.99862
-5.13504 5.82378 -15.3512
4.96606 1.75295 -1.96531
-8.36804 7.68391 -6.24546
-9.16899 10.6186 -29.5561
-7.81987 6.81633 4.58871
-9.1392 4.6164 -26.9207
-7.31221 5.76103 -4.30561
-9.16481 1.99261 -4.62922
-9.16446 2.1629 -6.02189
-5.62204 8.24169 -4.91035
9.47786 -11.976 21.1101
-7.78383 9.2378 4.60265
-9.19984 4.28397 -25.2338
-4.36296 7.663 18.1292
-7.90262 8.53215 33.4389
-9.14972 2.64254 -10.1172
-8.91701 2.44212 -9.26259
1.80146 -6.50942 13.2939
-9.12767 11.5254 32.977
-3.932 9.03889 6.72602
10.8582 -10.7206 16.234
9.01638 -11.2858 18.7309
4.77038 -4.66626 6.66709
3.51354 -10.5048 21.4271
-9.11284 6.37884 -15.6491
-8.87057 6.33078 -31.9151
-3.9178 -1.71543 4.66159
-9.13663 10.7478 -28.9612
-7.80987 7.70917 -22.0537
-8.12487 9.41782 36.2423
-8.89688 10.2089 -30.5331
-3.76072 6.93881 4.14143
-9.14413 4.43894 -30.759
-9.19905 5.01645 -19.3178
-8.68561 11.1649 27.4308
-9.19892 4.85608 -21.4469
-8.72481 10.3252 -31.3073
-9.13699 11.9395 -29.53
-9.19866 6.91605 -21.9858
-5.82318 8.92181 -2.97668
-8.39626 7.49441 -15.7284
-1.4349 -6.74608 18.4625
-5.67157 8.22294 -5.14563
-9.19524 4.32764 -24.7739
-8.25491 8.06344 24.6747
-9.15332 2.07141 -5.42945
-9.198 5.52344 -17.8945
-9.13092 1.9118 -3.02212
-9.19787 5.31112 -17.8161
-8.98213 1.66031 -3.34384
-8.71297 7.19796 -21.4433
-7.89551 1.23343 0.331049
-8.7067 10.1901 27.728
-9.12278 1.92253 -4.07781
-7.63984 10.3231 13.679
6.30032 -6.47667 8.95266
0.161019 -6.93634 14.9482
-8.57057 2.07351 -7.40512
-9.13545 6.54461 -17.4384
-8.21268 9.1586 34.442
-9.15156 6.57182 -16.8403
7.39055 -12.1536 24.332
-9.18524 9.6043 35.8235
-6.51791 5.52634 -18.7663
-7.36845 6.70109 14.8358
-9.13894 12.0825 -29.6232
-7.6309 1.86454 -2.83263
-1.38912 -5.02592 12.3324
-8.82887 9.62745 27.2805
-8.30069 7.45738 1.84113
-9.13832 2.65278 -9.22471
-8.1427 7.19901 8.17572
-3.88706 -0.64504 1.50194
-2.37483 3.99232 -8.9937
11.1483 -11.8547 20.6747
-7.06042 0.573564 5.53022
-9.13801 4.33293 -36.0218
-6.27487 9.70026 2.79579
-9.1352 4.21627 -14.5732
-6.45779 9.4759 0.545872
-9.19682 4.36724 -37.3355
6.45165 -11.3215 25.6669
-8.04693 7.7314 -18.2907
-9.13262 1.63018 0.820683
1.96207 -6.22404 11.2122
-7.63261 10.1495 12.2912
-9.11184 4.15492 -36.3294
-9.11802 7.48178 -29.4655
-7.35142 8.43441 -11.3741
-9.19616 6.09563 -17.0738
-5.06129 -1.87416 8.51736
1.19488 4.59627 -6.58164
0.339073 0.0955062 -1.19047
-9.16334 10.1528 32.355
-9.16928 1.8611 -1.51891
-9.19577 9.56812 35.9882
5.41067 -1.72658 1.79147
-9.13071 1.60466 0.161874
-9.01107 9.50708 33.2491
-9.13482 4.64833 -16.0988
-5.22469 -0.910993 4.51642
9.02181 -8.0783 10.6411
-0.147929 -0.530678 0.118462
-0.840459 -6.88474 16.3368
-8.75461 8.77645 14.8556
-8.41738 1.25724 1.42266
-4.45031 9.08526 5.05506
-9.13026 6.87741 -19.2392
-9.14985 1.87467 -1.91184
0.2034 -7.67462 21.5695
-8.26579 7.44953 8.21645
-9.1246 2.45781 -8.40501
11.1223 -11.5431 19.3551
-9.13294 4.44459 -37.3728
-5.94467 8.7894 -4.119
5.39689 -10.3303 25.4671
-4.84694 0.521996 -1.23652
-7.64065 7.30763 -23.2472
-4.91013 1.43768 -4.7157
-2.21776 4.62541 -9.62337
5.91422 -6.63308 10.0305
-9.13245 7.15087 -31.7175
5.40469 -10.1188 25.6549
-9.18807 9.85832 33.2385
-9.19103 9.85306 33.8277
-5.4255 -0.688408 4.19432
-9.14389 6.7164 -19.2028
-8.84623 6.81238 -32.0991
-6.21389 -0.543965 4.73578
11.2392 -9.92653 11.3308
-8.27859 8.36831 5.69768
-4.50688 -3.51229 12.5799
4.68168 -5.02118 7.78725
1.37622 -2.01741 2.74765
-8.35377 11.0812 25.2873
-8.9347 9.10282 34.4233
-9.1759 7.19059 -25.3091
-7.37891 0.507262 2.66845
-9.13519 7.41318 -29.8502
0.759035 0.518641 -1.82335
-8.52012 7.43905 -19.9322
-9.10865 7.00254 -32.5989
-3.80137 4.33593 -11.1865
-8.67566 4.60973 -30.192
5.28632 -5.63174 8.6804
-8.73398 10.7942 27.8747
-5.67572 -2.37792 10.9813
-7.94623 0.982031 2.5194
-9.193 4.28147 -24.2059
-8.34954 5.94454 -31.9626
-9.193 4.44486 -24.1559
-9.13736 3.27441 -11.5654
4.34534 -5.24337 8.43112
-4.48351 -1.8105 5.25953
-2.83559 -0.0211798 -0.907178
-9.19258 7.12648 -32.2562
-6.72806 -0.175226 5.18279
-9.19195 6.91578 -32.1913
4.03106 -4.39719 6.26419
-9.19182 7.84546 -36.9209
-9.19169 6.69912 -20.0172
12.2076 -10.5369 13.4176
-6.56217 10.3213 7.44554
-4.09789 3.76039 -10.6578
-9.19142 1.99655 -6.91559
-6.12268 1.51065 -4.85418
-8.27359 2.6776 -9.83688
-5.62033 7.09943 21.2401
-5.46892 9.29423 1.54711
-4.45268 -2.40555 7.8817
-9.1658 11.0674 32.6322
-6.48857 2.17139 -6.36176
-8.98107 4.19451 -34.3552
-1.21661 0.973787 -2.90678
-8.10442 1.54257 -1.7105
-9.11621 2.07085 2.50599
-7.99589 7.01984 4.96508
-9.16301 6.75194 -19.0782
-9.16669 11.3855 33.004
-8.72192 9.08691 37.3908
-0.714488 -4.12006 7.9384
-3.87451 8.76244 6.1914
-9.18452 4.45446 -23.7061
-8.07973 8.99193 34.0312
-6.13983 7.09825 23.2507
-3.91043 2.53539 -7.44955
8.71337 -11.732 20.7215
-7.65911 2.6105 -9.19248
-9.1294 4.77498 -26.2849
3.42816 1.65465 -2.21789
-7.94287 7.32932 -25.062
-8.2407 7.78529 -10.5306
-7.40298 12.8665 28.4234
-8.83413 1.77993 -2.09454
8.76257 -6.31657 5.97697
-9.16082 4.48963 -23.4114
-9.18998 11.0216 -28.9016
-8.07762 1.86987 -4.51184
9.34297 -12.4365 22.5712
-5.26935 7.6553 20.681
-8.85895 11.6878 31.3716
0.910795 -6.4541 13.3657
-9.13512 3.68115 -12.8161
-8.0068 5.25679 -13.3857
-8.05344 2.07404 -6.31514
-8.64634 4.65738 -28.9614
-6.38662 12.5743 24.8593
5.12616 2.03464 -2.59715
-8.09731 10.4835 16.6222
-8.0493 8.07712 26.804
-9.17294 7.03273 -24.163
-9.12503 11.0242 -28.8052
-8.22821 8.07173 25.7719
-9.14906 5.48576 -17.568
-9.15674 6.55757 -19.1111
-9.12762 3.2582 -11.4195
-4.91666 7.46177 12.1205
1.25967 -5.56278 10.7368
-7.7041 8.4673 -3.94621
-6.90809 7.58235 -15.3286
-5.54684 10.0106 6.54904
7.63004 -11.834 22.0431
-9.18932 2.28084 -8.56748
-1.79824 0.28369 -1.81653
-9.1809 10.2206 -29.8994
-3.58037 -0.756867 1.62091
-9.13046 6.84753 -19.6991
-4.12367 7.35293 3.08981
9.40612 -5.91968 4.59713
-8.21485 8.77559 6.16015
11.9607 -11.0044 16.4527
-8.96818 4.49064 -34.4757
-9.16202 6.88901 -20.9572
-8.03048 9.71414 10.1732
-9.18906 5.5683 -17.6992
-5.08439 7.47455 20.2659
-4.5274 2.27097 -8.73178
-8.65838 10.686 -30.2595
-9.14403 2.50007 -8.58428
8.56557 -8.43408 11.3731
-8.93345 1.50047 0.147929
-2.56611 -5.45938 16.5834
-9.12397 2.13149 -7.67559
-7.76074 3.02732 -10.1144
-5.98999 9.04323 -2.97405
-9.17393 6.70149 -19.646
-7.17812 2.66172 -8.11152
-9.182 9.86416 33.5344
-8.68745 9.7323 19.7853
-6.38537 7.82586 -17.9413
-8.40836 7.48279 -17.8727
-8.92099 10.3194 29.844
-7.00333 -1.59221 12.1639
-2.21377 -3.97206 8.85509
10.9317 -10.4459 14.5029
-9.15801 12.709 -29.4718
-7.30656 7.80783 29.2621
7.96339 -3.30904 1.69879
-9.1442 7.77501 -36.524
-9.15564 3.391 -12.492
-6.01117 -0.648855 6.42144
-9.00094 6.88776 -21.1527
-8.35759 3.11171 -10.3733
6.7722 -9.93962 16.6567
-9.18814 12.492 -29.4873
-9.15025 4.35928 -36.3287
-9.06606 9.84056 37.3175
-2.8542 -4.35356 11.6347
-9.12804 11.0746 32.2457
-9.14308 3.03199 -10.7597
-3.20097 8.49308 8.32358
-8.93029 9.61061 30.8494
-8.41948 7.64313 -24.6913
-9.14591 4.34889 -35.2808
-9.13473 2.55591 -9.81445
-2.97273 -4.774 13.3121
-9.17551 6.37603 -17.2841
-9.13098 9.40539 35.1261
-9.1331 1.94297 -4.83037
-7.44719 6.73595 16.7971
-8.78046 5.83812 -13.653
-6.45239 -0.386629 6.93571
-4.48195 -0.824827 2.69253
3.62882 -4.79224 7.78834
-7.79784 8.62345 -3.44309
-9.12122 1.76575 -0.16137
-1.57723 -4.4788 10.3287
-8.86241 2.05602 4.61844
-8.35976 1.48436 -0.0389721
-9.13994 10.6336 -29.4326
-8.63342 9.25493 26.674
-9.18327 10.2902 32.2628
-7.31406 6.11279 0.0600532
-9.18537 1.98813 -4.53161
-8.10349 8.05048 27.081
-0.231859 -7.30978 16.5525
-8.36301 1.63818 3.85659
-9.11523 9.30343 36.7434
-3.20847 -4.1486 11.5909
-5.98144 2.46448 -8.30885
8.8862 -8.86714 12.8929
0.746356 -6.30197 13.1272
-9.11328 1.70326 -3.89612
-8.15927 4.41947 -17.738
-5.56692 -3.12079 13.1361
-7.12594 8.94536 -6.38675
-9.18577 5.03526 -18.7285
-9.1331 11.2349 32.5046
-8.23024 7.93175 -0.562513
-8.22884 1.93341 -5.14138
-9.12754 11.3808 32.5211
-9.16411 3.09518 -10.8656
-8.3074 4.91213 -31.8972
-9.1286 2.51816 -9.63399
-5.1799 8.0095 23.0746
-9.18498 4.85701 -20.9907
-7.89924 8.63919 -32.7129
-8.63763 10.0131 25.2257
2.51151 -6.20751 10.8658
-9.14328 7.54276 -27.4407
-4.60416 4.61318 -12.7095
4.1538 -2.37687 2.60399
-5.23186 9.91963 6.77114
-4.89877 8.26432 14.0632
11.1399 -12.4584 23.6969
-9.01212 6.85895 -20.5734
-5.71847 2.73732 -8.02825
0.202129 -3.90536 6.23205
-7.71779 9.94857 9.78946
-6.2844 8.84801 -5.61362
-9.12205 6.84966 -18.3183
-9.13104 4.59219 -29.1224
-9.12464 8.17482 -35.3059
-7.80829 2.43515 -7.02267
-8.60023 5.57264 -34.5761
7.55164 -5.56269 6.57395
-9.18406 1.86645 -1.39806
-4.93905 10.2868 9.27967
1.35509 -5.44517 9.85672
-9.12867 4.71079 -24.9473
-8.21466 4.66297 -30.1815
-4.61893 1.59499 -4.64396
-5.24653 7.60176 -4.91732
-9.15457 10.7707 32.531
-8.3812 9.77966 14.1007
5.47918 -10.6942 24.9077
-7.79224 0.82088 6.18784
-9.16755 10.4743 32.2364
-8.8075 4.73979 -35.5571
-9.10644 4.93857 -18.5141
-6.3193 7.60649 26.9355
2.57525 -9.19537 18.4538
-9.1834 2.59827 -8.91227
-9.16636 6.86007 -20.2535
-9.18287 2.62432 -9.27456
-9.18261 10.3986 34.7083
-8.7206 8.79263 14.3468
8.5459 -9.05487 13.1215
-8.82949 9.25582 32.3704
-8.36633 7.75719 1.14108
-8.86373 6.8508 -17.6867
9.5995 -12.4735 22.4826
-9.1148 7.34054 -29.2849
-9.172 6.41793 -15.7571
-8.58537 8.19045 17.7232
-3.2803 2.18599 -6.1076
-8.19453 1.33794 2.88321
-9.14538 11.3686 33.4232
7.24674 -11.0985 20.6793
-8.82378 2.02294 -5.26409
-9.12635 6.38883 -16.3727
-2.78395 -3.13303 7.42535
-5.60731 8.35614 24.4066
-3.74888 3.33009 -8.91964
-8.69709 2.33325 -7.82498
-7.75607 10.5433 14.9686
-7.93471 3.63568 -11.0521
-9.12661 4.13201 -14.2809
6.81337 -11.5611 25.7556
-0.717152 -6.36752 15.1185
-9.16397 4.34132 -35.6065
-8.77454 6.75582 -30.9546
-9.17064 10.0012 32.5664
-2.9851 -3.30523 9.20734
-8.81506 6.97748 -18.488
-9.16084 10.6192 32.2704
-7.45876 7.51329 28.311
-4.50978 10.7567 12.8676
-7.90341 1.76068 -5.34684
-9.18077 7.01511 -23.9856
-9.16959 9.97823 32.8281
8.55726 -10.6331 17.0874
7.215 -11.9274 23.1936
-9.15456 10.7516 32.3466
-8.83729 7.62169 -26.0285
-7.36194 4.60555 -23.4383
-9.12058 1.75167 -2.47645
4.37375 -4.71226 7.31121
-7.79632 8.58609 -1.80087
-7.94221 1.23823 1.21856
-9.12719 1.91426 -3.9318
-9.11828 9.56388 33.8888
-9.13134 6.72451 -18.6423
-8.84038 6.84803 -14.2661
-9.17932 1.97998 -6.83981
-9.13762 11.7738 -29.403
-8.85733 6.69653 -15.1609
-8.52277 2.99298 -10.2321
0.00440697 0.925595 -2.72245
-5.54357 7.13955 21.2895
-4.46623 -2.76475 10.2806
5.75215 -9.54944 17.8695
-9.17906 6.5802 -18.8745
-8.48335 5.95697 -35.4873
-7.93511 6.49193 -0.650192
7.30366 -9.52629 15.7556
5.87374 -9.98457 18.9811
-9.1788 5.84443 -17.046
-4.76814 7.2102 15.4452
0.634801 -6.69596 13.836
-8.83641 9.37733 25.7547
-9.17866 4.63942 -22.3158
-4.62199 7.90163 18.6692
-7.7737 6.87033 -25.8217
-8.34134 7.95339 21.9833
-7.39364 8.69081 -4.96271
-9.14367 4.40969 -30.8772
9.1707 -10.3049 15.5948
-9.17853 6.88171 -22.511
-9.11241 2.86658 -10.204
-5.12307 -4.07145 16.9896
-8.78046 11.8908 30.9465
6.62131 -1.8208 1.44871
-9.1237 3.57076 -12.4885
2.42232 3.64305 -4.79432
-4.62633 7.0497 18.2994
-9.17814 2.15349 2.59334
-9.17761 6.43865 -17.3681
-6.85691 6.71504 18.0568
-7.9553 6.85336 -35.2781
-2.06682 -5.87315 16.9242
3.75664 -6.16463 10.7621
-9.16055 9.84271 33.7655
-2.09463 4.74499 -9.9489
-9.17761 11.8932 32.9231
-8.12481 12.4479 30.108
-8.30437 4.4813 -19.9525
-9.11151 10.6263 -28.9909
-9.12762 9.53458 34.3556
-6.62473 -0.526863 8.33516
-9.16176 10.1655 32.1918
-5.13517 12.1141 20.7866
-1.59901 -6.30591 17.5322
7.98181 -12.061 25.4685
-6.42885 13.0741 25.5247
10.8277 -11.323 18.7758
-9.16941 6.26127 -16.9522
-4.31074 1.70925 -5.31106
-1.05623 3.22452 -6.7474
-6.16798 5.41136 -16.799
-9.14481 6.40124 -15.3014
-7.54124 4.11808 -15.6697
-5.66098 -0.287571 1.27782
-3.25491 8.22492 7.13271
-9.13801 1.91828 1.14088
-6.71984 10.3315 8.79502
-9.16617 9.6783 33.9079
-5.01467 9.77518 6.56684
4.43387 -10.8022 23.4876
-7.7264 12.8279 28.9744
-9.13014 7.02111 -32.2809
-8.3099 9.26963 9.94798
-4.17485 4.86358 -12.0723
-9.17255 3.36758 -11.7314
-5.56166 8.33022 21.0513
-3.43342 -2.40627 5.64664
8.1177 -4.64876 4.19734
-8.5021 11.0039 25.3234
-5.84351 -3.46973 15.8689
-6.95242 -1.64084 11.6683
-4.02093 3.16605 -9.44913
-9.14584 9.21872 35.6692
-7.73291 7.0182 16.0039
-8.75954 11.293 -29.8393
-3.60687 8.18617 5.69716
-7.16922 2.78678 -9.47505
-8.16138 8.23524 29.2255
-9.17524 4.98737 -17.1074
-9.13894 6.24612 -14.5604
-9.17241 6.7103 -18.143
7.06477 -11.0994 20.2354
-8.33845 8.69173 28.7449
-9.11345 2.19949 -6.75812
4.87325 -10.6178 20.8506
-9.1511 6.77081 -20.4206
3.89964 -0.950327 0.669399
-8.73389 9.58233 20.2002
1.99445 -9.47801 20.7993
-8.1744 7.23835 -34.3547
-9.14687 10.3193 -28.833
-8.06942 12.4816 29.9344
-6.19587 5.06315 -17.1496
-8.60536 7.11732 -29.7949
-9.17432 4.46617 -35.7824
-9.17432 9.02731 32.3623
-8.22281 8.03555 22.019
-9.14428 6.57722 -17.8785
-1.89 -6.28085 17.0549
-9.08167 2.21164 4.35599
-3.17256 -3.18512 8.38936
3.88359 -10.2947 23.013
-9.12315 10.6561 -30.0109
-3.63759 7.34832 -14.1338
-8.38968 10.0284 18.1153
-8.68956 9.22543 15.5302
-8.02798 6.15121 -6.37017
-9.1738 4.03731 -37.3592
-9.13909 10.9114 -28.8436
-7.34826 5.93875 -2.1041
3.77318 -1.07383 1.15843
-8.2803 7.68417 -8.01799
0.184917 5.2157 -8.13191
-5.1253 -0.386629 1.929
-9.13141 11.2106 32.4091
-9.17327 7.51013 -27.8395
-4.58305 -2.42752 8.38607
-9.1512 9.73338 33.1055
-8.8903 12.2665 -29.7125
-4.14564 2.0326 -6.32216
3.14835 -4.33198 6.92966
-7.62254 1.20218 4.42486
-8.54511 4.5303 -15.2847
-9.1135 11.0982 -28.7204
-8.75994 8.75737 15.7269
-9.16939 4.30811 -37.7538
-8.56072 11.8289 29.8141
1.0783 -5.91643 11.5263
-8.96095 7.44528 -29.7303
6.91617 -1.12261 0.369146
-8.32437 6.72938 -36.7834
-9.12688 1.92446 1.46138
-9.02455 11.2178 31.8286
-4.13012 -2.06115 5.34842
-9.12246 3.81121 -13.2249
6.17071 -9.97626 18.4388
-8.05456 8.67331 2.61846
-9.17222 8.00871 -36.0187
-4.6483 -1.49732 5.39538
-7.22842 4.10085 -16.4152
-7.94919 8.10343 -10.722
-9.16989 9.86477 33.4234
-4.31929 5.95125 -13.6943
-3.50709 2.99319 -8.40619
-8.01312 11.282 24.1668
-7.34444 10.858 15.7585
-9.16255 4.29712 -24.5
-4.33251 9.53793 7.36457
-9.17209 10.5673 -29.2264
4.25233 -2.35214 2.55242
-8.4775 7.80415 13.8558
-5.11561 8.51567 -0.673915
-3.40672 0.561987 -3.68153
-8.73643 5.53721 -34.7191
-9.15814 7.15139 -30.5105
-7.01074 0.579133 6.3122
-5.52002 -1.37557 6.60184
-8.19427 5.38005 -13.5775
-9.11782 4.62541 -26.7375
-5.51588 0.837719 -2.12159
-9.13262 7.02975 -23.733
-9.17169 9.13532 33.9319
-8.26622 10.1463 -30.9355
-9.12256 12.5015 -29.6975
-5.89718 7.15567 -17.3998
-8.05627 1.13524 5.67738
-8.20887 7.45072 -33.9446
-9.12992 4.59719 -21.9457
-4.04606 1.13187 -3.56853
-7.80658 6.82449 6.88112
-8.54524 3.88142 -13.8861
-9.17143 4.37605 -30.8356
-8.01022 8.56162 -33.3861
-9.12144 10.1649 31.9486
-8.67943 4.00802 -13.3759
-8.38712 10.0455 15.8132
-8.3965 7.33951 -36.1765
-8.61582 5.15286 -37.1759
-8.94121 6.57743 -32.3227
-5.27764 9.64271 4.5274
-9.1342 10.6151 -29.9191
-9.1144 4.70079 -25.2517
-8.09922 7.02997 8.08416
-9.17117 7.3574 -26.7531
-6.04248 3.48979 -13.5948
-4.67645 1.00216 -2.55834
-6.61328 3.67054 -12.4063
-9.15334 7.37911 -27.0427
-8.76651 10.8355 28.1285
-9.1709 6.32762 -15.5335
-7.93366 9.05731 4.0408
-9.14727 12.4229 -29.5826
-8.59405 9.54247 36.6022
-8.40527 8.63305 29.8334
-8.54562 11.7963 29.3642
-9.12657 4.95199 -17.1088
-8.82076 7.74153 -36.7785
-7.77606 2.89538 -10.1738
-7.18856 7.63478 -16.2509
-7.19951 2.6087 -7.98105
1.38696 -8.88584 19.9386
-9.14709 6.72556 -19.8557
-5.47589 -3.65186 16.4757
-5.31737 12.7252 20.9875
-1.93269 -5.86261 15.9002
-0.0330852 -6.5627 14.7987
-9.13521 7.13249 -24.478
3.95529 -8.52716 16.6473
-8.67574 8.14276 10.938
-9.16998 9.87135 35.5981
-8.071 3.23327 -10.9063
-2.26577 -5.11531 13.4231
10.8265 -10.3322 14.1804
6.3141 -7.08088 10.31
-9.11933 6.85114 -19.9621
-5.58771 7.10745 -8.02654
-9.1586 11.5028 32.645
-9.16972 11.7886 -29.5446
-4.23786 6.86251 2.25288
-8.73435 10.7365 28.0124
-9.12904 2.97077 -10.4848
-8.10744 5.20496 -14.9773
-8.22479 12.3654 30.1403
-9.16893 7.09272 -32.1248
-5.5143 -2.82178 12.1217
-8.64042 9.12203 29.6724
-2.6848 -3.80062 10.2771
-9.11664 2.23729 -8.44119
-6.28717 6.51047 -11.308
-8.65693 8.94805 20.3941
-9.16867 7.5446 -28.5851
-9.11565 6.99649 -23.4301
5.42925 -11.1071 22.3079
-6.13325 7.47849 -10.2119
-9.16814 10.0812 -28.8099
0.0278231 -7.06181 15.5039
-8.32213 7.8223 -21.6595
-8.89478 6.70057 -32.6244
-7.65638 3.66538 -12.5195
10.076 -12.5004 22.8154
-9.12164 2.0376 -5.00651
-8.9837 4.51879 -31.9336
-8.50742 9.84181 18.912
5.73294 -7.402 11.9857
5.18556 -9.9933 18.9436
-9.13196 7.0053 -22.1115
-8.03476 1.05708 2.46435
-4.90256 8.06528 12.8509
-9.15222 2.23966 -7.08976
-8.307 8.00135 17.3851
-7.14554 6.86514 20.7423
-4.15025 -0.296385 0.0582115
-9.10999 7.44081 -28.7697
-7.84237 7.41744 21.9856
-9.15893 6.58598 -18.3425
-8.70574 10.5574 26.0966
-9.12137 1.99754 -4.85201
-8.84588 2.02247 -5.11925
-3.24228 5.99913 -12.6608
-8.25438 6.14621 -8.59951
-4.26667 -4.7002 16.7097
-8.57024 5.80648 -32.7155
2.59939 -9.78988 20.6802
-9.11322 2.02911 3.05975
-9.1244 5.06453 -17.4083
-7.45666 0.875693 2.67275
-8.70745 8.95075 14.5008
-2.83789 0.121159 -2.20158
-5.10327 -1.56816 7.15948
-9.15819 10.4519 32.5474
-8.93814 11.0566 30.2832
-9.15209 7.32879 -26.5889
-5.92093 5.92218 -8.89688
-7.77856 6.76424 5.47931
-8.18172 8.51174 -0.0314188
-9.14367 6.11339 -16.8459
-8.79572 10.2599 27.0219
-9.16564 7.7293 -36.8684
-6.96544 2.387 -7.1087
9.00794 -11.5527 19.7556
-9.16235 11.1984 32.8659
-9.16281 10.9271 32.8861
-5.44708 -0.787992 3.12362
-8.98555 4.42216 -31.7116
-8.26543 8.1446 1.40595
8.04456 -5.19628 4.74552
-6.58518 12.7056 25.8019
-3.14546 -0.431094 -0.243436
4.50711 -1.44223 1.62311
-9.16511 10.3385 -29.4869
0.0247974 -7.48211 16.6908
-7.62524 6.11214 -2.25657
-7.77258 8.02516 -16.0271
-9.12085 3.1767 -11.3244
-5.33193 8.20578 -3.15309
-2.3497 1.47584 -4.19007
9.78008 -8.58507 10.96
-9.13262 4.63232 -29.5651
-2.21026 1.46949 -4.66586
2.8375 3.71317 -4.92087
-8.57379 3.20301 -10.7432
-8.22878 6.99204 0.685974
-4.43137 -0.554357 1.5875
-9.15163 4.32403 -36.4648
-7.70279 5.85482 -7.23749
-9.11464 6.83413 -18.757
-9.00146 6.81192 -31.9355
-8.937 10.6499 29.8156
-6.95124 9.93397 4.01067
-8.53946 4.19868 -14.267
-9.15959 7.4858 -29.2491
-8.65657 4.01185 -13.5391
-1.49034 0.874531 -2.85177
-9.16459 6.62598 -16.41
-8.64921 10.4755 26.9574
-7.47376 -0.736885 10.7976
0.313092 -7.70381 17.521
-9.16446 4.67428 -26.0921
-9.13841 11.0842 32.3902
-9.14755 8.99587 31.1426
-8.77559 9.03244 -33.7497
-9.15367 6.40273 -16.9524
-4.76979 10.0339 8.17098
-8.60905 5.8122 -34.2485
-5.64546 8.39784 23.8187
-9.14893 2.13113 -6.25697
1.49225 -7.98543 16.1971
-9.14084 6.91269 -22.7702
-8.71587 9.93778 27.4504
-8.85682 4.77623 -35.7473
3.13605 -2.59518 3.64187
-9.16367 7.25703 -32.4772
-9.15439 2.16086 -7.85105
-9.13999 9.74076 33.4373
-9.16288 10.0871 32.0996
-2.09888 -1.55007 1.87007
-8.7206 4.96337 -36.7825
-9.15946 10.4117 32.1213
-8.8291 7.14307 -20.1085
-9.16275 10.1929 -30.0019
-9.16248 4.61758 -29.7036
-9.16235 7.2986 -29.4369
-3.26377 4.436 -10.6974
-9.16222 9.86437 34.3943
-8.67837 2.15507 -6.68741
-9.16169 7.31478 -30.5317
-8.28997 7.32274 -2.33707
12.6554 -11.4784 18.0173
-8.51538 8.37811 19.1578
-9.16143 2.8252 -10.0152
-3.88627 10.7574 14.9743
-8.53327 8.52176 28.913
-9.15814 10.0216 32.9491
-6.31848 0.501079 0.152402
-8.38501 7.73245 3.16637
-9.01001 8.18025 -35.9005
-4.19668 5.97269 -13.5129
-9.16104 4.56483 -27.8125
-4.79537 9.06283 3.93569
-4.40914 2.24334 -8.37607
9.44962 -12.5007 24.5802
-6.03788 0.359661 -0.946446
-3.07889 -4.51142 12.5752
-9.15814 1.92894 -5.7507
-9.13407 9.72345 32.9339
-7.64701 0.577773 7.22276
-3.67863 -4.76663 16.4295
-4.91588 -1.33656 5.42919
-8.65796 9.26824 24.845
-9.11423 4.17839 -14.4131
-9.13584 7.03957 -22.3479
4.00041 -9.52524 24.9939
-9.15946 4.5401 -23.0523
-9.1588 7.35766 -27.1532
-8.83466 4.59535 -15.7827
-2.15751 6.36353 -12.0944
-1.62051 -4.8374 11.2495
-9.14722 10.8909 32.1233
7.45442 -9.85122 16.3069
-8.55985 5.0025 -34.8139
-6.0434 -0.391891 4.34849
10.4982 -12.3282 24.585
6.31206 -10.5527 20.2407
-6.41714 -1.8133 11.5655
-4.48127 -1.83746 6.77044
-9.15867 5.70893 -16.7135
-5.38565 -3.65989 16.1641
-5.5708 4.03784 -13.3358
-9.15854 4.35672 -32.9745
-6.02472 10.8184 12.5572
-9.09024 4.43313 -36.9216
6.00801 -6.96426 10.6686
-9.12315 3.09823 -11.0181
-9.15827 11.7416 32.8184
-5.03822 7.60196 10.3874
-8.99311 9.97205 -30.2472
-8.21821 7.03786 -27.3965
-8.98502 1.92749 2.99352
-9.15814 5.03421 -18.987
-8.96529 4.75611 -17.877
8.71975 -7.15021 8.70317
-9.11749 11.6518 32.6308
-4.36796 7.146 -15.1039
-7.69345 0.983214 6.15088
-9.15077 4.88641 -20.7072
-9.0975 6.87056 -18.9435
-6.48897 2.6316 -7.8475
-6.29857 -2.0244 11.9713
-9.11434 1.77726 -1.4074
7.8471 -9.58812 15.3099
-9.15656 1.84146 -0.631775
-9.11532 1.78614 -1.80456
-5.29053 2.75718 -8.45645
8.03561 -10.9151 18.3275
-7.72147 8.72803 -2.46639
-8.03009 8.9497 2.25933
-5.9479 2.54026 -7.42522
-8.47315 7.77508 5.90448
-9.13413 6.56533 -17.0001
-8.97059 9.37246 33.7883
-9.15321 6.32972 -32.0808
6.17193 -5.42419 7.43383
-9.15591 6.40865 -17.1583
-5.39683 5.68025 -15.7253
-7.92147 8.79679 -32.4232
-7.27367 6.55231 13.6952
-6.71694 0.954273 -2.66536
7.36352 -6.6098 8.86281
-9.15577 4.38211 -31.273
-9.15452 7.31024 -29.1144
-9.08964 2.95102 -10.3903
-0.288689 -4.61969 8.35568
-9.09197 10.3312 31.5992
-9.0483 4.36948 -36.3661
-9.15538 4.47222 -33.0867
